ncols        270
nrows        66
xllcorner    0
yllcorner    33240
cellsize     1108
NODATA_value -3.00000000549776E38
-262.8 -274.2 -237.8 -225 -195.5 -164.8 -190 -239.5 -234 -225.8 -218.2 -219.2 -167.5 -126.2 -98.2 -70.5 -59.2 -57 -53.2 -49.8 -52.8 -57.8 -61 -66 -77.5 -88.8 -107.8 -102.5 -109.8 -122 -132.2 -131 -110.8 -107.8 -134.8 -144.8 -141.8 -127 -126 -148 -153.5 -173.5 -169.2 -170.5 -180.2 -189 -203.8 -225.5 -274 -430.2 -369.2 -193.5 -204 -236.2 -222.5 -167 -243.8 -304 -256.8 -151.2 -118.2 -87 -134.5 -172 -173.8 -170 -92.2 -50.2 -36 -29.2 -37 -18.2 1.8 15.2 16.8 15.2 16.8 19.2 19.5 13.8 16.8 24.5 24.2 22.8 20.5 22.2 29 36.2 37.8 40.5 43.2 45.2 44.8 50 52.2 60.2 63 64.2 69.2 71.8 80.8 80.5 69.8 66.2 67.8 72 75.2 80.8 84.8 84.2 79.2 72.5 68.2 67.5 73 77.8 82.8 86.2 93 97.8 106.5 108 100 96.5 94 95.8 95 93.8 91.8 89 86.2 84.2 83 78.8 74 71.5 71.2 72.8 74.2 75.5 72.8 69.5 64.8 60.8 58 55.5 52.8 49.2 46 43 39.2 31.8 24 15 11.2 -12.5 -43 -76.2 -77.2 -114.5 -99.2 -157.8 -195.5 -112.5 -83 -40.5 -23 -13.2 -6 -6.5 -4.2 1.8 3.2 3.8 6.2 14.8 27 25 23.5 20.5 15.2 14 12.2 11.2 14.5 25.2 15.5 -4.5 -6.8 -9.2 -7.5 -98 -223.5 -331 -368.2 -514 -382.2 -307.8 -249.5 -190.2 -224.5 -308.8 -391.2 -393 -337.2 -390 -505.2 -501 -419 -416 -391 -410.5 -351 -300.2 -255.5 -219.2 -200 -180 -221.2 -353.2 -369.8 -394.5 -336.2 -390 -437.2 -451 -449.5 -404 -318 -444.5 -526.5 -629 -723 -593.5 -529.2 -550.2 -557.2 -523.2 -480 -373.8 -323.2 -368.8 -360.2 -328.2 -336 -377.2 -362.5 -339.5 -319.8 -314 -231.8 -166 -136.2 -112.2 -100.2 -94 -91.2 -92.2 -96.8 -101 -89.2 -85.2 -93.2 -98.8 -97 -90 -88.5 -82.8 -85 -90.5
-254.8 -268.2 -235 -197.5 -171.8 -147 -156.2 -198.5 -209.5 -186.2 -202.2 -208.2 -157.2 -119.2 -101.2 -76 -61 -59 -54.2 -52.2 -57.8 -59.5 -68.2 -72.8 -73.8 -88.2 -96.8 -97.5 -100.2 -114.5 -115 -114.8 -103 -109 -124.2 -121.8 -113.5 -113 -115 -123.8 -127.2 -154.2 -160.8 -162 -179.8 -193.8 -180.8 -185 -272.5 -302.8 -233.8 -259 -179.8 -133.5 -187.8 -189.5 -144.5 -183.8 -148 -129.8 -199.2 -158 -71 -109 -148 -194.8 -193.5 -64 -22 -16.5 -7.8 -7.8 7.8 14 17.5 18.5 21.8 24.8 19.2 11.8 16.2 22.5 24.5 25.2 22.5 22.8 30.8 39.2 44.2 48.8 54 54 51.2 50.2 54.8 60.2 69.2 70.2 66 69.5 75 76 70.5 68.5 69.2 72 76.5 78.8 81.2 83 79.2 73.2 68.8 70 71.5 75.5 83.8 92.8 98 99.5 109.5 105.5 100.2 98.2 99.5 99.2 96.2 91.8 89 86.5 84 81.2 78.8 75.8 73 70.5 71 72.8 75 75.5 73 69.8 64.8 60.5 57.2 54.2 51.8 47.2 43.2 39.5 36 23.2 9.5 -1 -37 -52.2 -78.5 -110.8 -64 -67.8 -62.5 -80.2 -104.2 -141 -133.5 -65.8 -29 -4.8 3.8 9.5 6.8 8.5 6.2 5.5 8.8 12.5 13 17 18 18.2 18.2 17.8 17.2 15.2 14.8 15 10.5 -1.5 -6.8 -38.8 -164.8 -276 -306.2 -227.2 -277.2 -362.8 -467.2 -349.5 -269.5 -195.8 -206 -299.8 -305.8 -312.2 -355.5 -428.2 -468 -464 -502.2 -456.2 -447.5 -372 -283.5 -229.2 -201.5 -181 -183.5 -269.5 -325 -417 -478.5 -399.2 -378.5 -432.8 -458.2 -557.5 -559 -480.8 -457.2 -558.5 -608.2 -602.8 -582.2 -593.8 -566.8 -471.2 -379.5 -380.8 -432.5 -396.5 -388.8 -363.5 -328.2 -324.2 -290 -290.5 -315.2 -283 -267 -290.5 -226.8 -173.5 -133.5 -113.5 -98.8 -91.8 -86.8 -82.2 -81 -82 -80.8 -81.8 -98.5 -111 -98 -91.2 -103.2 -93.5 -84.5 -88
-235.5 -240.8 -217.5 -169.8 -141.8 -130.5 -138.5 -150 -174.2 -179.8 -195.2 -221 -257.5 -227.5 -155.2 -95.5 -59.2 -54.5 -52.8 -50.8 -57 -60.8 -78.2 -91 -74.8 -78.5 -85 -90.5 -107.5 -99 -96.8 -97.2 -100.8 -112.5 -119.2 -104 -108 -113 -113.8 -125.5 -156.8 -186.8 -191.5 -184.2 -200.5 -208.8 -198.2 -250.2 -231.5 -195.8 -251.5 -293.5 -307 -208 -106 -98.8 -104.8 -90.5 -82.5 -106.8 -163.8 -107.5 -67 -110.8 -157 -132 -166.2 -191 -34.8 -9.5 -1 3.2 12.5 16.2 19.5 22.2 25.5 27.8 20.2 13.8 16.8 21.8 25.5 27.8 25.5 25 30.2 40.2 46 52.8 61.2 61 59.2 56.8 59.2 62.5 69.5 67.8 66.8 65.2 67 70 66.5 65 65.5 68 70.2 74.8 80.2 81.8 80.2 74 69 67.5 68.5 73.5 84.2 91 99.5 101 108.2 102.2 98.8 98.5 101.2 99.5 94.5 89.5 86.8 85.5 82.5 78.8 75.5 71 69.8 71 70.8 71.8 72 72 71 68.8 64 59.8 56.8 53.5 49.8 43.2 35.5 30.5 28.2 8.5 -29.5 -51.5 -71 -90.2 -104.2 -112.5 -71.2 -29 -28.5 -43 -57.2 -107.8 -114 -67 -51.8 1.8 9.8 6.5 5.8 5.2 8 9.8 14.8 17.2 19.2 18.2 18 17.5 17.8 17.5 17.5 16 13.2 12.5 21 2 -42.2 -161.5 -181.5 -168.5 -152.5 -205.5 -357.2 -454.5 -416.5 -294.8 -255.2 -230.2 -180 -290.8 -287 -322.5 -320.2 -358.5 -331 -364.2 -437.8 -431 -433.2 -434.5 -369.5 -250.5 -204.5 -217.8 -295.2 -398 -421 -429.8 -467 -476 -472.5 -496.8 -552.5 -605.8 -543 -504.5 -428.5 -407.8 -516 -543 -499.5 -389.2 -387.2 -426.2 -430.8 -354.5 -445.2 -320.5 -294.8 -284 -308.2 -309 -232 -183.8 -235.2 -304.8 -252.5 -217.2 -171.8 -144.8 -114.8 -104.5 -104.5 -100.5 -89.5 -82.8 -89.5 -85.2 -76.5 -80.2 -91 -103.8 -109.2 -93.5 -92 -88 -85.2 -80.5
-207.2 -212.2 -175.5 -140.5 -132.5 -147 -173.8 -189.2 -210.5 -250 -240 -260.2 -283.8 -303.5 -278.2 -178.8 -66.2 -52.8 -53.8 -51 -54 -63 -81.5 -82.2 -85 -88.8 -85.5 -81.8 -97.5 -88 -105 -103.2 -99.2 -100.5 -103.5 -92.8 -98 -106.2 -107 -120.2 -126.5 -157 -177 -160.5 -166 -163.2 -241.5 -354.8 -215.2 -137.8 -182.2 -146.2 -138.2 -107.5 -98.5 -115.2 -141.5 -201.2 -240.2 -129.5 -92.5 -59.8 -94.2 -128 -140.8 -79.5 -64.2 -76 -22.8 3.8 11.8 15.5 16.5 18.8 21.8 24.5 27 25.2 17.8 14 19.8 25 28 28.5 29 30 36 43.8 48.8 53.8 58.5 60.8 59.5 61.2 59.8 60.8 65.5 65.5 66.8 66.2 63.2 65.5 65.2 67.2 70 71.8 71.8 74.5 81.2 85.2 85.5 79.8 71.8 67 66.5 75.8 81.2 83 89.5 95.2 100.2 100 97.2 96.8 95.8 93.8 90 87 85.8 84 81 77.5 73.5 70.5 70 70.8 70.5 69.8 70 69.5 69.2 67.5 65.2 61.8 58.2 54.8 49 39.2 26.5 16.5 5.5 -14.5 -37.5 -52.5 -79 -86.8 -130.5 -212.8 -151.5 -32.2 -23.8 -15.8 -21 -37.5 -42.8 -13.2 2 4.2 7.8 6 6.8 8.5 11.8 15.5 18.8 19 18.5 17.2 16 16.5 17 15.8 14.2 12.5 10.8 11.2 19.2 2 -14.5 -70.8 -103 -94 -213.2 -359 -368.2 -427.5 -473.2 -349.5 -277.5 -269 -204.2 -202.2 -224 -247 -329.5 -322 -406.8 -463.2 -466.2 -515.5 -436.2 -387.5 -314.8 -261 -332.5 -327.2 -305.8 -366 -446 -519.8 -536 -509 -555.5 -566.2 -579 -588.8 -514.5 -373 -355.8 -366 -295.2 -370.5 -377.5 -475.2 -403.2 -296.8 -271.5 -216 -212.8 -225 -206.5 -250.5 -226.8 -177.2 -156.8 -233 -254.2 -268 -246.8 -195.2 -171 -141.8 -97.8 -93.2 -88.2 -86.8 -87.8 -87.2 -95.5 -95.2 -81.2 -75.2 -77.8 -81 -102 -109 -92.2 -84.5 -82.8 -83.2
-210.8 -176.5 -148.2 -144.2 -166.8 -201.8 -232 -249.2 -232.5 -254.5 -279.8 -313.5 -302 -305.2 -322.8 -223.2 -83.5 -49.2 -49.5 -53 -52.2 -58.2 -65.5 -66.5 -73.5 -70.5 -78.2 -77.5 -78 -90.2 -88.8 -99.5 -94.2 -94 -91.8 -89 -96.8 -107.2 -108.2 -115.2 -129.2 -145.5 -171.2 -156.5 -151 -154 -240 -269.8 -250.2 -130 -88.2 -95.8 -108.2 -123.2 -177.2 -151 -208 -334.2 -221.5 -166 -115.8 -137 -107.5 -55.2 -36.5 -40 -32 -22 -2 11 14.5 18 20 22.5 23.5 25.8 27.8 24.8 16.5 13 19.5 28 29.5 30.5 31 34.8 42 49.5 53.2 54.2 55.8 57.5 62 62.5 62 63.2 65.5 65.5 62.2 61 61.2 63.2 63.2 66 69.8 68.8 70.2 76.5 86.5 94.8 97 83.8 72 67.2 70 74.5 76.5 79 83 89.2 98.8 99.8 98.8 95.8 93 89.5 86.2 85 83.5 82 79.2 76.5 72.8 71.2 70.5 71.8 71.5 70 69.8 69 69 68.5 67.8 66.2 63.5 59.8 53.2 41.2 24.8 5.8 -35.5 -56.5 -41.2 -60.5 -70.5 -86.8 -111.8 -164.5 -27 1 -3.8 -11.2 -9 -25 -29.2 -4.8 1.5 9.8 11 9.5 10.5 12.8 15.2 19 19.8 18 16.8 16 16 16 14.8 12 9.5 8.5 7.2 7 0.5 -3.5 -2.5 -43.8 -96.5 -129.2 -184.8 -222.2 -267.2 -452.8 -579.8 -398.2 -341.5 -370.8 -328.2 -191.5 -151.2 -226.2 -280.2 -316.5 -516.5 -615 -500 -447 -388.2 -329 -310 -456 -573.2 -472.5 -378 -421.8 -433.5 -543.2 -503.2 -477 -441.5 -448 -553 -491 -500.8 -477.8 -367.5 -263.5 -282.2 -308.5 -272.5 -190 -185.2 -186.8 -177.2 -150.2 -131.5 -142.5 -142.5 -182.2 -182.5 -179.5 -161.5 -176.8 -193 -179.2 -195.5 -190 -150 -117.2 -86 -78.2 -74.8 -76.8 -83 -89 -97.5 -99.2 -89.5 -84.5 -90.8 -86.2 -92 -96.2 -98 -94.5 -88.5 -89.5
-250.8 -199.8 -142.2 -144.2 -188 -234.2 -241.8 -246.2 -217.8 -256.5 -280.2 -269.5 -263.8 -272.8 -299.5 -266.2 -108.2 -50.8 -48 -51.5 -54.5 -66.2 -71.8 -77.8 -81 -74.8 -62.8 -64.8 -68 -78.2 -74 -78.2 -87 -83.5 -100 -103 -109 -113.8 -112.8 -127.2 -240.2 -236.5 -177.8 -148.2 -193.8 -292 -178.8 -122.2 -148 -99.8 -125 -143.2 -189 -176.5 -252 -417 -447.2 -378 -290.8 -187 -171 -139.8 -85.5 -48.8 -35.2 -19.2 -6 4.8 9.8 12 16 19.5 21.8 24.2 22.8 23.5 28.5 26 15 8.2 15.5 23.2 27.8 30.8 33.8 39 47.5 55 56.8 53.2 50 54.8 64 64.2 62.8 64.2 66.5 63.5 59.2 59.8 60 62 63 66 68.8 66.2 74 83 94.5 107 106.5 74.2 70.8 67.2 66.2 68.5 70.8 72.5 71 79.2 88.5 93.8 96.8 94.2 91.5 88 85.5 83 80.8 79.8 78.5 76 74.8 73.2 72.5 73.2 73.5 72.5 71 70 71 71.8 73.2 74.8 74 65 60.5 45 31.2 -16 -64.5 -57.8 -12.5 -12.2 -43.8 -15 -28.2 -14 9.8 16.5 13.2 14.5 1.5 -45.5 -62.5 -51.8 -14.5 7 16.5 15.5 15.5 16.2 15 15.8 16.8 16.5 14.8 15.8 17.8 14.8 12 8.2 5.8 5.5 4.2 2.5 0.2 -7.2 -5.5 -48.2 -130.2 -200 -361.8 -402 -406 -500 -579.5 -356 -309.5 -332.8 -332 -183.5 -127.2 -184.8 -321.8 -357.8 -460 -390.2 -390.5 -337.8 -313.2 -270.5 -407.8 -617.2 -729.2 -449.8 -520.8 -524 -461 -525.5 -492.8 -486.2 -458 -329.2 -483.8 -462.8 -434 -448.8 -453.2 -443.2 -390.8 -324.5 -246.5 -245.2 -303 -271.8 -248.5 -249.8 -218.8 -254.8 -273.2 -198.8 -188.2 -183.5 -157.2 -131.5 -142.5 -122.8 -105.5 -124.2 -156.2 -85.2 -71.8 -69.5 -72 -77.5 -74.2 -86.5 -95 -111.2 -107.8 -90.8 -96.8 -95 -87 -81.8 -80.5 -91 -96.8 -108.2
-186.2 -185.8 -126 -140.2 -190 -210 -199.5 -199.5 -186 -212.2 -217.5 -236.5 -278.2 -292 -227.8 -143.5 -82 -49.8 -48 -52.2 -62.2 -85.5 -103.2 -104.5 -90 -85.5 -75.2 -74 -67.5 -68 -75.5 -72.8 -77.8 -76.8 -82.2 -82.8 -98.2 -107.8 -122.8 -161.2 -172.5 -195.2 -250 -208 -163.2 -166.8 -96.2 -102.2 -105 -97 -143.5 -131 -130.8 -185 -323.8 -356.8 -332 -299.2 -266.5 -156 -126.8 -91 -62.5 -51.8 -43 -39.2 -17.2 7 12.8 15.5 17.8 21.5 22.2 23.5 24.8 27 26.8 20.5 11.2 5 13 19.5 27.8 35 43.5 46.8 52 57.2 57 52.2 51.5 57 61.8 65.5 66.5 66 64.5 61 58.2 59.2 60.8 63.5 63.8 65.2 66 69.2 79.5 91 99.5 95.8 80.8 73 70 68.8 67.2 67 69.5 71.8 72.2 76.8 80.8 85.8 87 86.8 85.5 85 84 81.8 80 80 78.8 76.8 75.8 74.8 74.5 77.2 80.5 77.2 74 73.8 75.5 76.8 76.8 76.2 71.2 58.2 45.8 36 32.8 11.2 -13.5 -25 2.5 7.2 17 16.2 20.5 17.2 22.2 21 19.5 17.8 7 -56 -14.5 9 13.5 20.8 20.5 19 16.8 14.8 15.2 17 18.5 17.5 16.8 14.2 12.8 9.8 6.8 5.8 4.5 3.8 3.2 2.5 3.5 0.8 -4.5 -25.8 -115.5 -200.2 -268.2 -333.8 -477.5 -489.2 -440.8 -313.2 -251 -425.5 -423.8 -281 -109 -153 -194 -216.5 -294.8 -261.2 -186.8 -184 -251 -392.2 -522.5 -691 -666 -569.8 -500.8 -438.2 -403.5 -516.8 -500 -478 -433.5 -353.5 -305.8 -334.5 -323 -374.2 -390.2 -373 -344.8 -420 -394 -363.5 -295.5 -243.2 -210.2 -199.5 -268.2 -275.5 -282.8 -241.5 -192.2 -150.5 -124.5 -142.8 -131 -101.2 -81 -103.5 -87.8 -65 -64.5 -64 -63 -65 -67.5 -74 -84 -86 -90 -107.8 -89.5 -80 -81 -83 -84.5 -97.2 -100.8 -106
-128 -119 -110 -140 -159.2 -186 -194.2 -192.2 -251.5 -246.8 -214.5 -236 -263.2 -221 -120.8 -84.5 -60.8 -49.2 -50.5 -58 -70.5 -125.2 -156.5 -150.2 -97.5 -84 -86.8 -85 -78.2 -68.5 -68 -66.2 -74 -80.8 -93.5 -97 -117.8 -128 -169 -289 -202 -148.2 -158.2 -168.5 -117.5 -86.8 -122.2 -91.2 -114.5 -104.8 -106.8 -119.2 -148 -205.8 -272.2 -238.5 -242.2 -225.8 -160.5 -112.5 -76 -59.2 -48.2 -45.5 -42.2 -44.8 -30.5 7 13.2 15 17 20 21.8 24 28.5 31.8 26 15.8 11.8 13 19 24.5 32.2 40.2 49.8 54.8 58.2 58.2 55.5 51.5 54.8 61.8 57.2 61.8 63.2 63 62.2 59.5 58.5 60.2 62.2 64.5 63.8 63.5 66.2 74.2 85 96.5 98 87 78.2 69.5 66.5 68.2 67.2 68.8 72 75.8 78.5 80.5 82.2 83 82 81.5 81 81.5 81.8 81.2 80.8 79.8 77 78 77.8 78.2 78.5 80.5 83.8 81 78.2 80.8 83.2 82.2 78.5 72.8 61.8 47 30.8 15 -17.5 18.8 11.8 7.8 14.2 17.5 18.5 19.2 23.5 25.5 26.5 25.2 23.5 21.2 16.8 10.2 9.5 19 22 23.8 22.2 20 16.8 15 16 17.8 17.5 15.5 13.5 11 7.8 5.8 4.2 5 4.2 3.5 2 3.8 6 2.5 2 -5.8 -52.2 -209.5 -322.8 -456.5 -314 -277.2 -236.5 -227.8 -190.8 -236 -238 -118.5 -151.8 -207.5 -213.8 -103.5 -129.5 -160.5 -202.2 -303 -421.8 -537.2 -574 -480.5 -412.2 -558.8 -487 -296.5 -250 -469.5 -528.8 -505 -469.8 -453.2 -446.8 -419.8 -341 -296.8 -309.2 -340 -338.2 -367.2 -350.2 -329.8 -340.5 -323.5 -246.2 -196.8 -168.8 -154.2 -194.5 -162 -104.2 -104.5 -130.5 -89.2 -83.5 -93 -96 -77 -66.8 -63 -61.8 -61.2 -60.8 -60.2 -60 -63.5 -68 -74 -91.2 -100 -86.8 -83.2 -76 -77.2 -84 -88.5 -89.2 -92.8
-88.8 -102.5 -133.5 -159.2 -180.5 -221 -259.5 -229.2 -249.8 -252.5 -252 -264 -234.8 -153 -89.8 -61.8 -50.2 -46.2 -49 -56.2 -89 -136.2 -135 -114.2 -95.8 -86.8 -83.8 -89.5 -82.2 -75.5 -74.2 -77.5 -76 -79.2 -95.8 -103.5 -128.8 -174 -230.2 -285.5 -276 -199.5 -121.2 -71.2 -113.5 -124 -97 -121 -133.5 -143.5 -133.2 -219.2 -286.2 -310.8 -182.5 -177 -205.2 -141.5 -96.5 -77.8 -66.8 -45.5 -29.8 -37.8 -33.5 -27.8 -15.8 11.5 11.8 11 14.8 17.5 21.5 25 31.8 36.8 25.5 9.8 16 28.8 31.5 34.5 38.2 44.2 53.8 60.5 63.2 58.5 53.8 56.8 62.5 63 51.5 59 60.8 61.5 61.8 58.8 59 60.5 63.2 67 65.8 65.2 68 78.2 87 97.8 100 90 74.5 68.5 67 69.2 67.5 70.5 75.2 80 84.5 84.5 85.2 83.8 81.8 79.5 77.8 79.2 79.8 81 81.5 79.5 79 80 80.5 81 84.8 88.5 87.8 84.8 83.2 89 92.8 91.2 80.5 71.8 55.2 37.5 20.2 1.5 -0.2 21.5 26.8 25 26.5 21 13.5 15 21.8 27.8 29.8 29.2 26.8 24.8 23.5 23.5 22.5 22 24.8 27 23.5 20.2 16.8 14.5 16.2 17.2 14.5 11.5 11.2 8.2 4.8 4 4.8 5 4 3.8 3 5 7 7.8 10 6 -14.8 -187 -364.5 -313.5 -176.5 -150.8 -111 -62.5 -50.8 -59.5 -27.5 -28 -67.8 -77.2 -97.5 -151 -227 -285 -343.2 -450.2 -586.2 -641.2 -519.8 -212.8 -326.2 -455.8 -320.2 -254 -372.2 -467.8 -489.5 -453.2 -453.8 -448.2 -422.2 -357.5 -329.5 -298.5 -283 -276.8 -300.8 -279.5 -283.5 -283 -279.2 -254 -291 -279 -228 -199.2 -152.5 -136.8 -150.5 -154.2 -94.8 -92 -118.8 -120.8 -104.5 -78.8 -67.2 -63 -60.8 -59.5 -59.8 -60 -59 -59 -59.5 -59.5 -65.2 -75.5 -81 -76 -79.2 -68.2 -61.8 -62.5 -77.5 -84
-101.2 -143.2 -175 -175.8 -228.5 -247 -276.5 -281.8 -262.2 -274.8 -296.2 -277.5 -187 -141 -76 -55.8 -48.8 -52.2 -51.5 -67 -115.5 -160.5 -137.5 -100.8 -95.8 -87.8 -83.8 -85.2 -88.2 -84 -80 -82 -81.8 -84.2 -98.8 -128.5 -126 -121.5 -209.8 -147.8 -154.8 -118.8 -79.5 -87.2 -153.5 -163.5 -165.2 -209.5 -256 -230.5 -193.2 -218.5 -170.5 -150 -137.8 -121.5 -156 -143.5 -86.8 -65.5 -45.2 -34.2 -24 -19.8 -24.8 -21 -8.2 15.8 10.2 9.5 14.2 19.2 23.8 28.5 33.2 34.5 23.2 12.8 21.2 35.2 40.5 44.2 45 48.5 55 61 62.8 57.8 52.2 60 61.2 57 56 61.8 63 62 61 59.2 61.2 62.5 66 69.5 70.2 69.5 69.8 74 82 87.5 86.5 74.8 70 68.5 69.8 71.8 72 73.8 77.8 81.2 85.5 86 85.8 84.8 83 81 79.5 79.5 79.8 81 81.2 80.5 81.5 83.5 84.2 86.2 92.2 101 87.8 85.8 85.5 90.5 94.2 91.5 78 65.8 50.2 36.5 24 17.5 14.2 21.5 26.8 29.8 32 26.8 20.5 19.2 22.2 26.8 28.5 28.8 28.8 26.5 26.2 25.8 27.8 29.5 28.5 28.8 25 21 17.2 16 13.8 12 9.2 6.8 6.5 5.5 3.5 4 4 5.2 5.5 5.5 5.2 5.8 6.5 8.5 9.5 4.2 1.2 -55.2 -232.8 -144 -20.5 -4 -46.8 -104.5 -150.8 -222 -163.2 -154.2 -149.5 -190.8 -274 -218.5 -243.2 -347.8 -476.8 -369 -287 -299.8 -224.8 -347.8 -197 -248.2 -241.5 -331.5 -409 -468.5 -486 -429 -375.2 -372.8 -393.8 -398 -337.5 -269.2 -237 -245.5 -229.2 -242.5 -260.5 -248.5 -299.8 -264 -253.2 -206.8 -211.8 -197.5 -212.8 -213.8 -129 -87 -93.8 -106.2 -109.8 -100.2 -88.8 -72.2 -63.2 -61.5 -66.8 -74 -75.5 -85.8 -69.5 -64 -62.5 -59.8 -61.8 -67.8 -80 -69 -68.2 -70.5 -71 -67.5 -68.8 -74.5
-102.8 -127.2 -132.5 -139.8 -205.5 -214.8 -270 -285 -240.2 -242.5 -260.5 -244 -255.8 -170.2 -69.8 -57.8 -52.8 -47.2 -52.5 -72.5 -120.5 -155 -112.5 -98.2 -97.8 -88.2 -86.8 -88.5 -87 -85.5 -89.5 -92.2 -84.8 -78.5 -89 -155.2 -132 -103.5 -74.2 -78 -66.5 -70 -59 -75.2 -83.5 -93.8 -111 -157.5 -158.8 -148.5 -128.2 -148.5 -189.2 -191 -143.2 -124.2 -173.2 -109 -88.5 -69.2 -52.8 -53 -36 -20.8 -12 -9.8 11.2 10.2 7.5 10.8 16 21 25.5 29.2 33 34.8 22 10.5 22.2 35 43.5 48.5 49 51.5 57 62.2 64 56.5 59.5 60.5 56.2 57 63.5 63.2 63.2 62.5 60.5 62 63.5 65.5 68.8 71.5 74.5 74 72.5 70.8 74.2 76 76.5 71.5 70.8 68.2 71.2 73.2 74 75.2 77 80 82.8 85 86.2 87 86 84.8 81.5 81.5 80.8 81.8 84 84.5 85 87.8 89 90.8 93.2 95.2 88 79.8 78.8 84 89.2 88.2 70.8 55 45.2 41 37.5 31.5 25.8 23.5 24 29 33 31.5 30.2 26.8 26.8 28.5 30 31.5 33.5 35.2 33.5 33.5 31.8 32.8 28.8 26.2 23.2 21 16.5 13.2 10.2 7 3.2 3.2 3 4.2 4.8 5.5 5.8 6.2 7.2 7.5 7.5 7.5 7.2 8 7 3.5 3 4.8 -18.2 -0.5 -7.2 -90.8 -244 -233.8 -204.2 -231.8 -323 -448.8 -474 -432.2 -357.5 -276.2 -398 -521.8 -528 -436.5 -562.5 -372.8 -291 -264 -157.2 -245.5 -371.5 -347.5 -455.2 -435.5 -384.2 -356.2 -367.2 -332 -288.5 -303.5 -326.2 -324.5 -285.5 -248.8 -204 -198.2 -241.8 -205 -219 -185 -199.2 -218.5 -203 -181.2 -137.5 -103.8 -129.8 -163 -172.5 -151.5 -145.8 -103 -70.5 -63 -61.5 -77.8 -237.5 -250.2 -194 -161.5 -127 -118.8 -119.5 -85 -81 -83.8 -78.8 -72.5 -72.5 -83.2 -80.5 -83.5 -66.2 -58.8
-100.5 -103.8 -91.5 -80.5 -100.5 -135.2 -197 -231.2 -215 -182 -197.5 -165.8 -169.8 -90 -59.8 -57.5 -45 -42.8 -60.2 -84 -108.8 -116.5 -98.5 -99.5 -96 -87.8 -91.8 -99 -92.5 -129.2 -128.5 -148.2 -145.5 -104.2 -80.2 -106 -92.2 -60 -85.8 -120.5 -130 -93.8 -75.8 -81.5 -78.2 -76.8 -102.8 -130.8 -120.8 -144.2 -151.8 -110.5 -138.2 -141.5 -105.8 -115.5 -119 -90.5 -86.8 -72 -106.5 -93.8 -138 -38.5 -6 4.8 8 9.2 11.8 15.2 19.5 24.5 29 32.5 34.2 32.5 24 20.5 30 40.2 44.5 47.5 50.2 53.2 57.8 61 60.2 57.2 59.8 56.2 55 60.8 65 64.2 64.2 63 62 63.8 64.5 65.8 67 67.5 71.5 72 70.8 70.2 70 74.5 74.8 73.5 70.2 69.5 72.2 75 75.5 76 76.2 79 82 86.2 90 94.2 95.5 92 87.5 84.2 82.5 82 85.8 85.5 87.8 89.8 90.2 91 92.5 96 83.5 74.2 75.2 74.5 77.5 75.8 66 54.2 47.8 46.2 45.2 42.8 42.2 31.5 23.8 28.2 31.2 32.5 32.8 31.2 31 31.5 34 37 37.8 37 32.8 29.8 28.5 27.8 25.5 22.2 19 17.2 14.2 10.2 8.5 6.2 3.8 3.8 4.5 6.5 7.2 7.5 7.2 7.2 8.2 9.2 9.8 10.5 9.8 8.2 6.8 5.8 2.2 2 -5.5 -69.2 -184 -267.5 -274 -406 -478.8 -525.5 -644.8 -613.5 -580.8 -404 -377.5 -408.8 -397.5 -357.2 -412.2 -319.8 -339.8 -354.8 -235.2 -237.5 -120.8 -216.2 -235.8 -279.8 -295.2 -348.8 -368.8 -326 -279 -245.2 -251.5 -228.8 -265.2 -249.2 -250.2 -247.8 -263.5 -241.8 -195.8 -183 -200 -189.8 -141.8 -126.8 -113.8 -103.5 -134.8 -213.5 -210.2 -189.5 -152.8 -128.2 -94.8 -80.5 -107.8 -76.2 -64.2 -103.8 -175 -138.5 -143 -148 -139.2 -130 -130.2 -122.2 -108.5 -100 -103.5 -103 -98.2 -92 -88 -83.5 -76.5 -73.5
-64.8 -82 -64.5 -64.8 -73.8 -88.2 -148.8 -180.5 -156 -206 -137 -112 -93.2 -66.2 -57.8 -56 -44 -38.5 -58 -91 -107.2 -99.8 -103 -100.5 -98.5 -101.8 -114.8 -110 -126.5 -203.5 -179.8 -162.2 -117.8 -82.8 -60.8 -68.5 -95.8 -125.2 -129.2 -148 -177 -193.2 -168.8 -106 -117.8 -102.2 -98.5 -114.8 -156.5 -176.5 -162.2 -106.8 -84.2 -101.8 -91.8 -96 -107.8 -69.2 -50 -55 -61 -51.8 -39.8 -12.2 6.5 8 6 11 16.5 19.5 23 28.5 33 37.2 35.2 27.5 25.8 29.8 35.8 42 45.5 48.5 51.5 54.5 58.5 60.8 59.5 58.5 59.2 57.2 60 63 65.2 65 65.5 63.8 63.8 64.8 65.2 65.5 65 64.8 70.5 70.8 69.8 69.8 73.2 75.8 74.2 72 67.5 70 73.8 76.5 78.2 78.2 78.2 81 83.8 90.5 96.2 102.8 106 99 92.2 86.8 83.2 85 86 87.8 89.5 88.2 88 88.5 89.2 94.2 87.8 86.5 93 65.2 68 69.2 65.2 57.8 52.2 50.5 49.2 47.8 47 36.8 27.2 32 32.5 33 33.2 33.2 33.8 35.5 37.5 41 38.8 34.5 27.8 23.2 23.5 22.2 21.8 18.5 15 13 13 11.5 11 9.2 7.5 7.5 8.2 10.5 11 10 8.8 9.5 10.8 11 12.2 13.5 13.2 9 6.8 7 1 -65.2 -194 -319.5 -402 -444.8 -452.2 -371 -267.2 -465 -541.5 -394.5 -162.8 -314 -419.5 -265.8 -276.5 -274.2 -291.5 -304.2 -221.2 -186.2 -149.8 -101.2 -246 -408.2 -278.2 -286.8 -434.5 -476 -479.8 -434.8 -393 -332.5 -300.8 -257 -211.5 -182.2 -191.2 -188.2 -174.8 -208 -170.5 -180 -171.2 -146.8 -154.8 -133 -119.5 -181 -218.5 -227.5 -211.2 -181.5 -173 -122.8 -112.2 -139.8 -116.2 -68.5 -107 -164.5 -218.5 -242.2 -236 -209.8 -161.5 -137.8 -127.5 -120.2 -117.2 -109.8 -99.2 -90.2 -84.2 -94 -93.2 -87 -83 -74.5
-55.5 -58.5 -61 -62 -68.5 -73 -99.5 -136 -117 -148 -128.8 -81 -61.2 -52 -53.5 -45 -37 -48.8 -83.2 -111.8 -102 -92.8 -87 -84.2 -103.8 -138.2 -144.5 -152.8 -206.2 -372.2 -316.8 -268 -252.2 -202 -82.2 -59 -65.5 -84.8 -130.5 -165 -133 -132.2 -109.8 -120 -196.8 -187.2 -214.8 -201.2 -156 -118.8 -103.2 -92.8 -76.8 -77.8 -97.8 -116.5 -78.8 -50.5 -37.8 -46.8 -45.2 -36.2 -20.5 4.5 12.8 9.8 7.2 11.5 17.8 22 25 30.5 36.2 42.5 38.8 32 30.5 32.8 38 42.8 46.5 50 53.5 56.2 59.2 60.2 59.2 58.8 59 59.2 60 63 64.8 65 65.8 65.5 66.5 66.2 65.5 66.8 67 68.2 68 69 69.5 71 71.8 70.8 67 66.2 66.5 69.8 73.8 77.2 79.8 81.8 83 87 92 100.2 108.8 108.5 108 100.5 93.8 87.8 83.8 84.2 83.8 85.2 87.5 84 84 82.8 81.5 78.2 75.8 81 90.5 89 62.8 65.5 63 59.2 55.8 54.2 51.5 48.2 46 42.2 42.2 41 39.2 34.2 31.2 33 38 38.8 39.8 37.8 33.8 28.8 26.8 25.8 23 19.5 19.5 18.5 14.8 13.2 15.2 16.8 16.8 16 14 12.5 12.8 14 14 11 10.5 11.8 13.5 13.5 14.8 14.8 13.8 7 3.5 1.5 -53.2 -202 -301.8 -357.2 -398.8 -235 -194.5 -126.2 -217.8 -296 -197 -257 -335 -269.2 -317 -307 -206 -290 -317.2 -320.8 -300.8 -237 -134.2 -122 -263.8 -385 -334.8 -338.8 -450.5 -399.5 -448.8 -430.8 -389 -345.2 -299.2 -310.5 -240.2 -223.8 -245.2 -268.2 -277.5 -224 -172.5 -150.2 -162.5 -183 -168.5 -143 -125 -149 -196 -240 -243 -208.5 -179.5 -141.5 -128.8 -90.8 -71.2 -121 -271.8 -351.2 -320.2 -328.5 -262.5 -228.2 -196.8 -151.8 -122.5 -116.8 -103.8 -100.2 -101 -92.2 -93.8 -113.2 -108.2 -107.8 -130.5 -104
-54.8 -54 -53 -61.2 -65.2 -67.2 -74.5 -85.2 -85.2 -82.2 -78.8 -65.2 -62 -63.8 -48 -37.8 -31.8 -51 -85.8 -107 -90.8 -79 -75.2 -88.5 -109.2 -164.5 -253 -244.8 -227.2 -323.2 -259.8 -219.8 -258 -217.8 -110.8 -63.8 -46.8 -53.5 -68.2 -67.2 -65 -102.5 -89 -142.8 -163 -182.5 -246.8 -130.5 -97.5 -88.8 -81.8 -69.5 -88.5 -99 -98.2 -74 -59 -57.5 -41.8 -36.8 -30 -18 0 6.2 10.5 10.5 9 12 16.2 20 24.8 30.5 37.2 41.5 39 36.2 36.2 38.2 42 46.2 49.8 53.2 56 57.8 57.8 58 59.2 59.5 56.5 59.5 61.2 64 64.8 66.2 67.8 69.5 71 73.5 74.8 70.5 67.8 67.2 68.5 69.2 69.8 71 70 66.2 65.2 66 67.2 69.2 72.5 76.2 80 85.2 90 93.8 98.2 104.8 111 107.5 104.2 97.8 92 87.5 86.8 86 85 84.2 81.8 80.5 80 79 78 75.5 73 71.8 73.8 74.5 60.5 58.2 57.5 54.8 55.8 55.2 52.8 49 45.5 42.8 41.5 41.5 39.8 34.2 30.2 33.2 35.5 35.8 34 29.8 29.2 29 27.5 26.5 23 19.8 18.5 16.8 16 16.8 18 18.8 17.8 16.2 15.8 15.8 15.8 15.2 14.2 12.2 10.5 13 14.8 15.5 15.2 11.8 7.5 2.5 -7.2 -114.5 -179.8 -240 -289.8 -211.8 -122.8 -62.5 -71.8 -149.2 -158.2 -178.8 -322 -417.5 -489.2 -383 -209.2 -211.2 -246.8 -214.2 -256.2 -200.5 -163.5 -180.5 -71.2 -114 -274.8 -331.5 -268 -333.8 -399.2 -277 -383.5 -409.2 -342.2 -263.8 -262.5 -276.5 -238 -282 -365 -369.8 -297.5 -243 -236.8 -228.2 -193.2 -171 -176.5 -205.8 -199.2 -191.2 -177.2 -199.5 -231.8 -218 -197.2 -150 -85 -71 -110 -254.2 -373.5 -324.8 -263 -270 -236.2 -196.8 -142.8 -106.5 -102.8 -102 -99.8 -110 -114.2 -134.5 -153 -133.5 -120.2 -121 -113.2 -93.5
-64.2 -64.5 -55.5 -51.8 -61 -67.8 -70.8 -70.8 -68.2 -64.8 -64.5 -64.2 -62.5 -57.8 -47.5 -37 -35.8 -76 -90.2 -91 -70.2 -90.2 -92.5 -127.8 -166.5 -259.2 -337.5 -358 -506 -406.5 -311.8 -252.8 -196.5 -157.5 -105.8 -116 -98.2 -53 -36 -52.5 -76.2 -96.8 -70.2 -99.2 -92 -123 -155 -94.8 -74 -65.8 -61 -56.8 -69.2 -75.5 -46.2 -32 -33.5 -30.2 -36.5 -34.5 -28.2 -14.2 2 4.5 9.5 10 10 13.2 16.8 20.5 26 31.8 37 39.8 39.2 39 40.8 43 45.5 48.2 51 55.8 57.5 58.2 57.2 58 59.8 55.2 53 59 63.2 65.8 66.8 68.2 72.2 75.8 76.5 76 75.5 75.5 75 71.5 73.2 73.2 70 69.5 66 64 64.2 64.8 66.5 68.2 71.2 75.5 81.8 89.5 98 101.2 101.5 102 102.2 99.8 96.8 93.2 89.8 89 88.5 88 86.8 84.8 81.5 78.8 77.8 77 77 76.5 74.2 71 71.2 72 72 59.2 56.2 53.8 54 54.5 52.8 48.5 45.5 42.5 41 40.8 40.2 36 35.5 34.8 33.5 33.5 31 27.5 26.8 26.5 25.5 23.5 21.8 19.5 18 17 18.2 19.2 19 19.2 18 16.5 17.2 17.8 17.8 15.5 15.2 15.2 15 15.5 17 15.8 12.8 8.5 4.2 2 -45.5 -101.8 -95.8 -66 -41 -31.2 -73.5 -145 -161.2 -257.8 -272.8 -294 -442.5 -497.2 -326.2 -240.8 -146.8 -137.8 -229.5 -198.8 -197.2 -111.5 -74.2 -71.8 -104.5 -186.8 -289 -341.2 -311.2 -210.5 -196 -348.8 -402.2 -381 -297.2 -287 -323.8 -302.8 -332.5 -386.2 -371 -365.2 -332.2 -306.5 -290.2 -262.5 -250.2 -263.8 -272.5 -258.8 -299.2 -316.8 -269.2 -198.5 -238 -243.8 -184.5 -100.2 -71.2 -90.8 -166.5 -318 -320 -281.2 -189.5 -145.8 -130.5 -111.8 -106.2 -110 -115.2 -118.5 -161.5 -193.2 -174.2 -225.8 -208 -162 -132.5 -113 -102.8 -97
-74 -83.8 -70.8 -59.8 -48.8 -63 -68.8 -69 -70.8 -70.2 -69.8 -63.8 -65.5 -62.5 -49 -44.2 -45.8 -61 -70.5 -70.5 -61 -85 -83.5 -109 -124 -148.2 -171.2 -355.5 -609.2 -558.5 -467.5 -465.8 -369 -206.8 -140.5 -115.2 -82.2 -61.8 -44.5 -31.2 -42.8 -56.5 -69.8 -75 -72.2 -101.5 -89 -84.5 -59.8 -42.5 -45.5 -50 -43.2 -38.8 -33.5 -29.8 -26.2 -28.5 -40.5 -39.5 -29.2 -27 -1.5 5.5 8 10.5 13.2 16 19.8 23.2 28.8 34.2 37.2 40 40.5 42.5 45 47 47 48 50.2 54.2 56.5 57.8 56.8 59.2 57.5 53.2 53.8 60.5 65.2 66.8 67.2 72 76.2 76.8 76 73.2 72 74.5 75.5 75.2 76 74.8 73.2 69 65.2 63.8 63 63.5 65.5 67.5 71 75.5 82.5 93.5 107 107.5 104.2 97.8 92 91.2 89.5 90.5 91.8 91.8 90.5 89.2 87 85.5 82 79 77.2 77 77.5 81.5 78.2 74.2 73 67.8 66.2 62.5 57.8 52.8 52.5 52 49.2 47.2 45.8 42.2 38.2 38.2 36.8 33.5 34 34.8 36.2 35 32 28.8 26 22.8 22.2 20 19.2 17.5 18.5 20 20.8 20.8 18 17.2 18.2 19.2 18.2 17.5 16.2 15 16.2 17.5 18.2 16.5 15.2 13.5 10 7 8.2 1 -38.2 -103.2 -50 -4.8 -32.8 -138 -130.5 -210.8 -293.2 -364 -499.5 -371.8 -346.5 -279 -230.8 -180 -80.5 -180 -157.5 -78.8 -55.5 -82 -151.5 -171.8 -148.5 -128.5 -154.5 -169.2 -166.5 -141.8 -156.5 -301 -341.8 -334.8 -346.8 -390.5 -377.5 -360.2 -386.8 -367.8 -343.8 -326.5 -292.5 -259 -237 -238 -221 -233.8 -220.8 -184.8 -175.8 -207.2 -207.8 -216.5 -172 -163 -122.2 -73.8 -93.2 -138.8 -169 -239.5 -234.5 -145.8 -110.2 -117.5 -137.8 -180.8 -221.8 -209.5 -187 -193.2 -301.5 -246.5 -214.2 -252.2 -215 -179.2 -143.8 -127 -114 -104
-79.2 -79 -78 -60.2 -41.8 -59.8 -63.5 -65.5 -71.2 -76.8 -75 -72.2 -68.8 -60.2 -57 -66 -89.8 -47.2 -48.2 -66.5 -52.2 -62 -59.2 -96 -123.5 -102.8 -177 -352.5 -464.5 -385.2 -294 -235.5 -233 -160 -107 -93.8 -86.5 -134.2 -115.8 -57.5 -28.2 -37.2 -45.8 -56.5 -71 -68.8 -66.2 -45.2 -44.8 -62.2 -74 -68.2 -71.8 -77.8 -96 -70.2 -48 -35.2 -41.5 -46.5 -38.2 -28.2 -16.2 3.8 5.8 10 13.5 17.5 22 26.5 29.8 31.5 34.2 38.2 41 43.8 46.5 47 47 47 48.5 51 53 53.8 59.5 60.8 55.8 54 59.5 63.8 65.8 67 70.8 77 79.2 74.2 73 69.8 66.5 67 72.8 78.5 76.8 75 73 66 65 64.2 64.5 64.8 66.5 68 71.5 75.8 83.5 93.5 102.2 103 99 93.8 89.8 88.8 88 91.8 94.8 93.8 92 90.2 87.8 84.2 79.2 74.8 73.2 72.5 74 77 77 75 73 67.5 68.8 69 63 54.2 50.5 50.2 48.5 46.2 43.5 41 37.8 35.8 33 32.2 33 35.5 37 35.2 33 31.5 27.5 24.5 23.8 22.5 20.8 20.5 20 20.5 20.5 19.8 17 14.8 15.2 16.2 17 17.5 16.8 14.8 14.5 17.5 18.5 14.5 9 8.2 6.2 6 7.5 6 -0.5 -2.2 -3.2 -10.5 -40 -118.5 -260.8 -380.2 -460.2 -394 -311.8 -182.2 -111 -150.5 -191.8 -93.8 -42.2 -43.8 -60.8 -60.2 -131.2 -128 -164.5 -165.5 -200.8 -209.8 -268 -272.2 -170 -161.8 -249.8 -258.5 -260.2 -293.5 -349 -359.8 -321.2 -376.8 -409.5 -376.5 -336.2 -287.8 -258.8 -240.5 -236.5 -209.5 -193.5 -185.5 -210.8 -261 -278.5 -259.5 -202.5 -156.8 -137.2 -108 -80 -80.2 -103.8 -124.2 -108.2 -105.2 -97.2 -113.5 -155.8 -183.2 -270.2 -323 -310.2 -266.8 -268.8 -340 -404.2 -279.5 -300 -339 -306.5 -250 -206.5 -173.2 -138.5 -120
-73.8 -71 -68.8 -65.8 -44.2 -49.8 -64.2 -72 -69.2 -59.8 -65.2 -91.8 -118.2 -120.8 -108.8 -134.2 -98.2 -93 -63.8 -46.8 -47.2 -58.8 -74.2 -87.8 -122 -140.2 -171.8 -239 -296.5 -290.8 -272.2 -156.2 -146 -165.8 -109.8 -117.2 -166.2 -150.8 -93 -71.2 -40.8 -31.5 -45.2 -52.2 -53.2 -40.5 -33.2 -49.8 -46.2 -52.8 -73.8 -129.8 -140 -112.5 -87.2 -74.8 -78.8 -43 -41.8 -45.8 -38.5 -32.2 -19.2 3.2 14 12.2 13.2 17.8 23.2 29.2 30.2 30.2 31.2 33.8 40.2 46.2 48.5 48.5 48.2 47.8 48.8 49.8 51.8 60.8 62 57.8 53.8 59.2 64.8 65 65 67.5 75 77.8 75.5 71.8 68 67.8 66.5 64 65.5 75.5 73.8 71.5 68.2 65 65.2 66 66.5 67 68.5 70.2 74.8 79.8 86.8 94.8 98.5 99 95.5 92 88.5 89.5 88.5 95.8 94.2 93 91.8 91 87.5 82.2 76 70.8 69.2 68 70 71.5 74 73.5 71.5 70.8 72.5 72 68.5 55.8 50 49.5 48.5 45.5 41.8 39.2 37 36 34.2 35 37 37.2 36.2 33 29.5 27.5 27.8 27.2 26.5 26 23 20.8 19 17.2 18.5 18 16 12.8 13.5 15 19 18.2 16.5 16.2 17 17.8 17.5 13.5 8 7.5 7.8 8.2 9 16.5 17.2 -2.5 -10.2 -84.5 -169.2 -261 -275.5 -310.8 -276 -184.8 -124.8 -48.2 -24.2 -47.8 -43.5 -54.5 -95.2 -100.2 -89.8 -123 -144.2 -174 -210.5 -170.8 -203 -249.2 -306.2 -295.5 -166.8 -264.5 -334.2 -318 -242 -227.2 -261 -264.5 -277.5 -401.2 -409 -380.8 -344.2 -366 -356.2 -307 -262.2 -260.5 -231.5 -188 -222.8 -223.8 -229.2 -203.2 -186 -165.2 -152 -110.5 -81.2 -83.2 -87.2 -85.5 -96 -105 -111.2 -174.2 -212.5 -291.5 -336.5 -320.5 -340 -329.2 -382.8 -462.8 -362.2 -343.2 -335.5 -384.2 -361.8 -294.2 -249.5 -197.8 -152.2 -138.5
-59.8 -60 -64.5 -58.2 -44.2 -57.2 -77.8 -81.2 -54.5 -57.5 -112.8 -171.2 -215.8 -268 -220.5 -208.2 -153 -110.2 -71.2 -59.5 -36.2 -66 -68.2 -58.2 -94 -131.2 -249.5 -378 -296.5 -192.5 -154.5 -113 -119.5 -132 -120.2 -92.2 -105.8 -111.2 -81 -54 -34.2 -23.8 -51.5 -36.8 -35.5 -49.8 -59 -44.8 -53.8 -78.8 -82.2 -81.5 -105.2 -123 -115.2 -73.5 -52.2 -39.8 -40.5 -37.8 -33 -23.8 -16.8 -3.5 12.2 14.2 16.5 20.2 25 28 29 29.5 30 32.5 39.5 46 49.5 50.5 50.5 50 50.5 51 57 63 65 59 60 64.2 66.5 69.2 73.2 72.5 73.5 73.2 69.5 66.8 69.5 72.2 66.8 68.8 71.8 69.8 67 67 65.8 66 66.5 68 69.2 70.5 72.5 75 80 87.2 96.2 101 101.2 98.8 96 94.5 93.5 93 94.5 93.5 91.5 90.8 90 85 82 79.2 74.8 69 68.5 69 71.5 73.5 74.5 73.5 72 70.8 73.2 65.5 56.2 56.2 53.2 52 50 46.8 42.8 39.2 37 37.2 37.8 38 39.2 37.5 34.5 30.8 27.2 25.2 26.8 28 27.5 26.8 24.5 22.5 20.5 19 19.2 18.2 17 15.2 15.5 17.5 18.5 15.2 12.5 16 18.2 18.5 18 15.5 11.8 11 12 12 12 13.5 12 11 0 -41.2 -107.8 -126.2 -150.2 -172.8 -180.2 -119 -18.8 -7.8 -10.5 -92.5 -126.5 -138 -194.8 -208 -146.8 -168.8 -142.5 -149 -184.8 -212 -260.5 -369.2 -350.8 -259 -185.2 -363.8 -426 -449.2 -379 -309.5 -217.5 -216.5 -300 -303 -401.8 -395.2 -414.2 -396.5 -352 -313.2 -282.8 -245.5 -211.2 -199.5 -181.2 -177.8 -206.8 -231.8 -211 -188 -122 -123 -113.8 -143 -147 -122.8 -127 -123 -124.8 -172.5 -225.5 -368.8 -368.2 -296.2 -301.5 -342.2 -382.8 -364.5 -318 -285 -320.2 -370.2 -427.5 -412.8 -331.8 -238.2 -172.5 -187.8
-64.5 -53.8 -54.5 -45.5 -63 -81.5 -73 -58.2 -49 -77 -132.5 -182 -217.5 -251 -212.5 -111.8 -90 -69.8 -60.5 -44.5 -57.8 -78.2 -78.2 -76.5 -94.8 -148.5 -416.8 -558.8 -336.5 -184.2 -112.5 -95.2 -103 -109.8 -88.5 -104.5 -73.2 -81.8 -90 -73 -52.5 -38 -23 -28.5 -47.8 -42.5 -42.8 -81.5 -78.2 -93.2 -88.8 -77 -99 -102.5 -71 -54.2 -43 -35.8 -40.5 -24.8 -19 -13.8 -6.5 1.8 9.5 13.5 18.5 23.2 27.2 26.8 28.5 29 30.8 34.2 40.2 46.2 51.2 53.5 54 53.5 53 55.2 61 64.5 65.8 61.8 63.8 67.5 68.5 73.2 74.8 71 71 71 67.5 67.5 71.2 76.8 76.5 71.8 70 68.8 70 69.5 68.2 66.5 68 70 72 74 75.5 78 84.2 93.2 105 106.2 104.8 99.5 97 97.2 98.8 94.2 91.2 91 90.5 90 87.8 83 79.5 78 76.2 73 73 73.8 76 77.2 77.2 76 74.5 74.5 74.2 62.2 54.5 55.5 55 54 52.2 48 43.8 41 39.2 38.2 38.2 37.2 38 36.2 33.5 30 27 25.5 27 27.8 26.8 25.8 25 24.8 23 22 20.8 20.2 19.2 18.8 19.2 20.2 17.2 14.2 13 16.5 19.5 19.8 18.8 17 15.5 14.5 14 14.8 15.8 12.5 12.2 32.5 10.2 -48.8 -99.5 -113 -83.5 -24 10 21.2 14.2 -34 -148.2 -233.2 -292.5 -260.8 -230.8 -252.8 -235.2 -212.2 -202.8 -163.2 -205.2 -316.5 -426.5 -448 -470.8 -297.5 -263 -399.2 -448.8 -461.8 -400.2 -358 -281.8 -238.5 -217.8 -240.2 -201.5 -275.8 -351 -286 -236 -211.8 -208.2 -217.8 -244 -211 -172.2 -155.8 -163 -213.2 -173.8 -113.5 -147 -151.2 -158 -220.2 -236 -162.8 -149.8 -145.8 -138.8 -158 -241.8 -301.5 -295 -285.2 -315.8 -288.8 -335.5 -361 -270.8 -309 -356 -451.8 -472.5 -397.2 -300.2 -204.2 -240.2 -321.5
-60.2 -60.5 -71.5 -57.2 -40 -62.2 -53 -37.5 -48.8 -91 -127.5 -152.2 -217.5 -255 -195.8 -137.5 -112.5 -89.5 -35 -57.2 -77.8 -70 -81.5 -101 -168.5 -342.2 -355.8 -379 -263 -167.5 -157.8 -125 -95.2 -92.5 -84.8 -64.2 -75.2 -55.8 -62.5 -58 -53.5 -45.2 -36.5 -18.2 -31 -40.2 -67.8 -90.2 -76.5 -63 -71.8 -92.8 -93.5 -83.2 -73.5 -53.5 -40.2 -36.2 -40.2 -28.8 -20.5 -6.5 4.2 9.2 7.5 11.2 16 23.5 28 27.5 30 30 32.2 37 43 48.2 53.8 58.2 59.2 59.5 56.8 61 66.5 66.5 64.2 64 67 68 71 72.8 73 69.8 74.2 80.2 72.8 71 73.8 76 71.5 70.2 73.5 72.2 68.2 68.5 69 69.8 71.5 73 75 76.5 77 78.5 85.5 94.5 103 103.2 100.5 96 94.2 96.5 100.2 95.5 90.8 90 89.5 89 85.5 82.5 78.8 77.2 78 79 80.8 84.2 80.5 79.5 78.8 79 77 78.2 74.2 65.5 56.5 55.2 56.5 55.5 52.2 48.2 45.8 43.5 42.5 38.5 33.8 33 33 34.2 33 30.8 29.5 29.2 28 27.5 25.2 22.5 23.8 25.2 24.8 23 22 22.5 21.2 21.8 20.8 20.2 18.2 16.2 15.8 16.8 19.2 18.5 16.8 17.5 18.2 15.8 13.5 15.2 16.8 13.2 9.2 8.8 11.5 15 12.2 58.5 66.2 67.5 37.5 -12 -44 -156.5 -231 -288.8 -332.8 -363.2 -422.5 -364 -365.5 -275 -363.2 -325.5 -283.2 -449.5 -482 -453.8 -420.8 -354.8 -344.2 -415.2 -418.2 -428.5 -421.8 -393.8 -370.5 -364.5 -311.5 -305.5 -274 -181.8 -180.2 -164.8 -180.2 -159.5 -162 -219.5 -205.2 -215 -212 -206.8 -150.8 -121.2 -129.5 -149 -204.5 -250.5 -258.2 -292.8 -232 -170 -148.2 -136 -128.8 -130.8 -162.2 -164.8 -201.8 -233.5 -288.8 -244.2 -266.8 -261.8 -232.2 -247 -323.8 -451.5 -399.2 -352 -243.8 -246.2 -279.5 -294.8
-71.5 -101 -75 -53.8 -41.5 -31 -39.2 -41.5 -74.5 -140.5 -114.5 -87.8 -139.5 -121.2 -153 -231.5 -289.5 -284 -98.5 -49.8 -67 -80.8 -80.5 -81 -185.2 -402.8 -261.5 -204 -174.5 -127.8 -111 -123 -137.8 -116 -91.5 -70.5 -47.5 -48.5 -40.5 -42.5 -37 -36.5 -31.2 -23.2 -31.5 -49.8 -75.5 -60.8 -62 -76.5 -100 -127.2 -106.2 -80.5 -56.2 -49.8 -47.2 -47.5 -46.5 -34.5 -16.2 -1 10.5 10 7.8 10.2 15.5 22.5 27.5 29.2 32.2 33.8 37.8 44 47 50.8 55.2 59.8 62 62.2 59.2 67 67 62.5 64.2 67.2 68.8 68.5 69 71 69.5 67.5 78.5 80.8 74 72 71 69.5 65.5 66.2 72 71.2 70.2 70.2 70.8 73.2 74.8 76.5 78.5 79.5 80.5 83 88.5 95.2 100.5 99 95 92.5 91.5 93 94.2 94.8 93.5 91.2 90.5 88 83.8 80.5 77 75.2 77.2 80.5 82.2 82.8 80 77.5 77.5 78.8 77 75 76.2 67.2 58 54.8 54.5 53.5 51 49.5 47.8 45.5 42.5 38 33 31 30 32.5 33.5 32.2 31.2 29.5 27.8 26.5 24.8 23.5 24 25 25 24 23 22.5 20.8 19.5 19.5 19.8 19.5 17.5 16 17.2 18.5 19.2 18.2 17.8 17.8 16.8 15.5 15.8 15.2 11.5 8.5 7.8 6.8 3.8 -3.8 -1.2 -2.2 -4 -9.2 -97.8 -177.2 -324 -368 -356.2 -336 -437.8 -434.5 -428.8 -457.5 -419.5 -462 -520.5 -492 -493 -466.8 -426 -418.2 -375.2 -310.5 -352.8 -383 -332.2 -301.8 -347.8 -345.2 -278 -225 -185.5 -180 -156.2 -127.8 -124.2 -122.8 -130 -157.8 -127.5 -179.8 -181.8 -131.2 -129.5 -150.5 -182.8 -212.2 -185.8 -165.8 -190.8 -197 -188 -170.2 -177.8 -193.2 -192.2 -180.8 -184.2 -204 -171.5 -151.2 -163.5 -177.8 -183.5 -185 -188 -194 -212.5 -355.8 -388.8 -331.8 -239.8 -231.5 -260.8 -226.5 -195.5
-81.8 -94 -68.8 -57.2 -53.5 -71 -98 -104.5 -47.5 -48.5 -48.2 -35.5 -85 -156.5 -183 -303.2 -305.2 -326 -128 -44.2 -67.8 -69.2 -106.5 -175 -371.8 -368 -212 -138.5 -119.8 -112.8 -99.2 -91 -108 -86 -73.8 -80.5 -64.2 -57.8 -44.5 -28 -25.5 -24.2 -60.5 -53.5 -50 -53 -51.5 -62.2 -80.8 -91.8 -118.2 -101.2 -79 -73.5 -59.5 -57.5 -56 -47 -40.2 -23.2 -2.2 7.8 9.2 7.8 6.5 10 16.2 24.5 30.8 34.5 36.5 37.5 40.8 45.8 48.8 52 54.8 59 61.5 64.8 69.2 68.5 67.5 66.8 68.2 69.2 68.5 68.2 67.8 69.8 74.8 75.8 75.5 76.2 76 72.8 67 67.5 68.8 68.8 74.2 73.8 72.2 71.8 72.5 75.5 77.2 79.8 82.2 83.5 84 86 90.2 95.2 98.5 94.2 90.8 90.8 91 91.2 91.8 93 92.2 90 88.8 85 82 79.5 76.5 73.8 77 79.8 80.5 79.5 77.8 75.2 76 77.8 76.2 72.8 66 59.8 55.5 54 53.2 52.2 50 49 48.2 46 42.2 38.5 34.8 32.8 32.8 34.2 35.2 33.5 30.8 28.5 27.2 25.8 24.8 24 24.5 25 25 24.5 22.8 22.2 20.8 18.5 18.5 19 19.8 18.2 17 18.2 19.8 19.5 17.8 17 17.5 17.5 17 15 13 10.2 7.2 6 2.2 2 -0.2 -2 -4.2 -10.8 -54.2 -181.8 -216.5 -286 -287 -368.5 -429 -437.2 -437.8 -397.8 -440.8 -419 -479.5 -485.2 -509.8 -570 -524.2 -432.5 -408.2 -342.5 -309.5 -346.2 -371 -309.8 -272.5 -302.2 -272.8 -189 -143.5 -149.5 -163 -167.2 -178.2 -132.2 -167.2 -257 -271.8 -177.8 -141.8 -164 -188.8 -283.5 -253.5 -252.5 -207.8 -195.8 -205.5 -247 -249.2 -268 -344.8 -387 -373.2 -342.2 -322 -330.2 -319.2 -316.2 -256.8 -219 -192.8 -185.5 -201.8 -186.8 -173.8 -244.5 -394.2 -320.8 -237 -209.5 -187.2 -185 -165.2 -160.5
-66 -59.8 -56.5 -48.5 -85.8 -119.2 -126.5 -132.8 -77 -70.2 -93.5 -72 -58.8 -141.8 -205.2 -195.2 -200.2 -235.2 -126.5 -46.8 -60.2 -77.5 -127.2 -212.5 -266 -295.5 -187.2 -136.2 -113 -103.2 -90.8 -77 -75.5 -84 -78.2 -74 -56 -46 -41.5 -42.2 -36.2 -24.2 -47.2 -56.2 -66 -65.2 -60 -70.5 -62 -71 -84.5 -97.5 -83 -62.5 -59.2 -65.2 -60 -43.5 -31.8 -5.5 5.5 9 10.5 8.5 5.2 9.8 17.8 27.8 34.5 39.2 40.2 40.2 41.2 45.5 48.2 50 53 55.8 57 62.2 68.5 68.5 68.5 68 69 69.8 71 69.2 67.8 75.2 81 78.2 75.5 78.8 77.8 68 67 68.2 70 71.8 76.2 74.5 72.8 72 73 75.8 79.5 82 85.5 88 86.8 87.5 89.8 91 90 87.8 86.2 89.5 92.8 88.2 89.5 89.2 85.2 84.2 81 80 80 79.8 78.8 77 77 78.8 78.5 78 76 74.5 71.8 74 72.5 67.8 60.5 53.5 53.2 53.5 56 53.8 50.8 48.5 47 45 42.8 41 39.2 36.2 35.8 35.5 35.2 32 29.2 27.2 26 25.5 25 23.8 24.2 25.2 24.8 23.2 20.5 19.5 20.5 21.8 20 19.2 18.2 19.8 21.8 20.5 20.8 19 17.8 17 18 17 15.2 13 12.2 9 6.8 11.5 2.8 0.5 -10.2 -21.8 -67.8 -81.5 -93.5 -150.2 -199.2 -213.8 -246 -298.5 -362.5 -410.2 -398 -392.8 -403 -399 -461.5 -529.2 -600.8 -603.8 -482.2 -434.8 -373 -365 -369.8 -340 -329.8 -326.2 -328.8 -318 -247.8 -182.5 -182.2 -209 -241.5 -229.8 -205.2 -160.5 -290.8 -378.8 -304.2 -212.5 -214 -273.5 -310.8 -305 -324.8 -310.2 -284.8 -314 -346.8 -400 -383.2 -437.5 -449 -452.2 -409.2 -376.5 -352.5 -308.2 -353.5 -296.2 -219.8 -184.5 -196.8 -259.5 -246.2 -206.2 -185.2 -224.5 -208 -195.5 -234.8 -185.5 -150.5 -153 -176.5 -213.2
-93.5 -71.2 -59 -64.5 -128.2 -148.2 -176.8 -171.8 -82.2 -118.5 -192.8 -187.5 -68.8 -37.2 -94 -96 -126 -150.2 -106.8 -54.8 -46.5 -81.8 -101.8 -122.2 -141.5 -133.5 -135 -129.5 -124 -96.8 -82 -82.5 -69.5 -70.8 -69.5 -57 -48.2 -34.2 -25.8 -37.5 -29.5 -18.5 -51.5 -70.2 -87.2 -64.5 -48.2 -41.2 -40.8 -56.5 -67 -61 -52.2 -45.2 -41 -45.5 -47.5 -36.2 -1.8 3.8 9.2 13 16.5 10.8 6 13.2 23.8 31 37.5 42 42.5 42 42.8 45 47.8 49.8 52.5 53.5 63 70 68 68 69.5 69.5 71.5 71.5 71.8 70.8 69.5 75.5 80 75.8 75.8 77.2 70.2 67 68 70.2 72.5 73.2 74.5 75 73.2 73.5 75 77.2 81.2 84.8 88.2 89.8 89.5 90 89.8 88.8 87 85 84.5 85.2 84.2 84.5 87.5 84.5 82.5 83.5 77.2 79 81.5 80.8 79.5 76 73.5 73 75.8 78 74.8 72.8 72 71 69 65.5 60 56.8 56.8 57.5 56.8 53.2 50 47.5 45.8 44.5 43.2 41.8 40.5 37 33 33.8 33.2 30 27 25.2 25.5 26 26.5 26.8 26.5 26.2 23.5 19.2 18.5 17.5 18.5 19 19.8 20.8 20.5 20.8 20 17.5 16.8 16.5 16.8 15.2 15 13.5 10 9 9 7.8 7.8 21.2 3 -52.2 -117.2 -106 -62 -86.8 -157.8 -258.5 -226.2 -202.8 -263 -309.8 -350.8 -378.5 -374.2 -381.2 -380.2 -493.8 -637 -652.8 -586.2 -533.8 -452 -403 -386.5 -409.5 -412 -374.5 -328 -281 -260.2 -235.2 -223.2 -230 -203.5 -204.8 -193.5 -195 -182.2 -317.2 -458 -435.2 -318 -303.5 -268.8 -339.8 -380.8 -372.2 -402.8 -418.8 -418 -429.2 -412 -427.2 -436 -421.2 -353.8 -373.5 -424.2 -389.2 -347 -279.8 -292.8 -316 -214.8 -172 -180.5 -187.5 -168.2 -178.2 -238.5 -250.2 -229.5 -185.2 -170.8 -143.8 -149.8 -217 -217.8 -231.5
-143.2 -101.2 -93.5 -95.5 -148.5 -182 -222.8 -181 -84.8 -138.5 -214 -142.8 -132.5 -84 -40.8 -69 -79 -82.2 -74.2 -57 -42.2 -91.8 -78.8 -71.8 -84 -86 -105.2 -120.5 -102.2 -96.8 -117 -92 -79.2 -63.2 -46.2 -57.8 -53 -45.2 -74.8 -49.2 -38.2 -8 -20.2 -53.5 -53 -39.5 -44 -52.2 -53.5 -63.5 -58.8 -45 -38.2 -38.5 -32 -43 -47.8 -2.2 3.8 9.2 12.8 14 12.8 9 7.2 15.8 25 32.5 38.8 43.8 43.8 43.5 44 46 49 52.2 54 54.5 68.8 72.5 70 71.8 72.2 69.8 71.2 72.5 73 72.5 73.2 78 77.2 74.2 72 68.8 67.5 68.5 70.2 71.8 73.2 75 78.2 80.2 75.8 76.5 77.8 79.8 82.8 87.5 91.2 93 92.5 93 91.8 89.2 86 83.5 81.8 80.2 79 78.5 79.8 81 80.5 75 75 77.5 80.5 81 80 75.8 71.5 69.8 71.8 73.5 72.5 71.5 68.5 66.5 64.5 62 59.8 58.8 59.2 58.5 54 51 49 47.5 46.2 45.2 43.2 40.8 38.2 36.2 34.5 33.2 31.8 28.8 26 25.8 27.2 28.2 28.2 27.5 27 25.8 23.2 21 19.8 18.8 18.5 18.8 20.8 21.2 21.5 20.5 19 16.5 15 13.8 11.5 10.5 10.2 9.5 7.2 6.5 6.8 6.8 5.8 5 -8.5 -77.8 -130 -99 -76.5 -107.2 -131.5 -165.5 -185.5 -226.8 -281.8 -346.5 -345.2 -377.5 -403.5 -333.2 -466.8 -570.8 -572.8 -516 -463 -413.8 -456.8 -475 -432.5 -388.8 -311.8 -290.2 -286 -268.5 -263.2 -255.5 -217.2 -193.5 -268.8 -235.5 -212.8 -236.5 -262.2 -403.5 -506.2 -442 -394 -376.2 -354 -396.5 -431.2 -464.2 -476 -424.8 -396.8 -362.8 -392.2 -398.5 -369.5 -358.2 -374.8 -328.5 -339.2 -320.5 -290.8 -296.2 -253 -267.8 -230 -251.5 -283 -245 -175.5 -193.8 -273.5 -213.5 -257.8 -209.5 -141 -129.2 -174 -231 -216.8 -154.8
-162.5 -124.5 -128 -123 -148 -162.2 -185 -212.8 -157.8 -109.5 -176.2 -160.8 -136.5 -83.8 -34.2 -23.8 -24.2 -12.8 -20.5 -46.8 -25 -76 -99.8 -87.5 -77 -77.8 -93.2 -121.2 -116.2 -115.2 -119.5 -96 -76 -60.5 -48 -43.8 -41.2 -78.2 -67 -43.8 -29.5 -5.5 -44.2 -54.5 -44.5 -43.5 -56.2 -64.5 -64.8 -57 -54.5 -47 -51.5 -57.2 -33.8 -11.2 -2.8 4.2 11.8 14.2 17.2 15.5 9.5 7 10.2 19.2 27 34 40.8 45.8 44.2 44 45.5 47.5 50.8 54.5 56 60.8 73 70 70.5 73.2 69 70.8 71.5 72.5 72.8 74.5 78.5 77.5 77.5 75 71.5 68.8 69.8 70.8 70.5 73 75.2 77 78.8 79.8 79 79.5 80.8 81.8 84.5 88.5 91.2 94.2 93 94 92.5 91.5 87.8 83.8 79.5 76.8 76.5 77 81 82.2 76.2 70.8 71.5 75 78.8 80.5 80 74 69.2 67.2 69 70.8 71.5 67.8 64.8 62.2 59.5 58.2 58.5 58.8 57 54.5 49.8 49 49 48.2 47.2 45.2 42.5 38 34.8 34 34.8 33.2 31.8 29 26.2 27.2 30 31 28.2 25.8 26 27 25 23.2 22.2 21 20.8 22.5 22.2 21 18.5 19.2 18 17.2 17 13 6.8 6.5 5.8 6.8 6 6 6.2 11 8.5 2 -24 -69.8 -59 -46 -69.8 -76.8 -109.5 -152.5 -198.5 -230 -279.5 -356 -347.5 -333.5 -304.2 -340.8 -471.5 -481.5 -411.8 -439.8 -460.5 -430.2 -380.5 -406 -418.5 -401.8 -382.8 -364.8 -401.2 -382.8 -301.2 -266.8 -203.2 -260.5 -309 -314 -329.2 -304.2 -353 -506.5 -488.2 -439.8 -405.2 -388.5 -363 -385.2 -440 -421.8 -416.2 -399.2 -361.2 -329.8 -357.2 -402.2 -413.2 -359.5 -292.2 -295.5 -267 -254.5 -253 -238 -206.8 -222.5 -241.5 -261.8 -223.2 -258.5 -192.8 -181.5 -204.8 -164.5 -176 -167 -167 -127.2 -199 -181.2 -154 -122.2
-149.2 -135 -128 -138.2 -128.2 -144.5 -177.2 -230.8 -215.2 -136.8 -119 -147.8 -111.8 -105.8 -66.5 -65 -34.5 -23.8 -13 -26.8 -45.8 -53 -86.5 -110.8 -101.2 -87.2 -111.5 -110 -109.5 -102.8 -100.2 -79 -82.8 -62.2 -62 -72.8 -77 -49.8 -50.2 -42.5 -34.2 -28 -19.8 -49.5 -58.5 -61.2 -47 -61.8 -54.2 -43 -34.2 -53.8 -71.8 -50.2 -15.8 1.2 6.8 7.5 11.5 16.5 20.8 18 11 8 14.5 24.2 32.5 38.5 43.2 43.5 43.5 44.5 46.5 48.8 51.2 53.8 61.2 71.5 76.8 74.2 71.8 69 69.8 71.5 73 72.8 71.8 72.8 76.5 76.2 78.2 74.5 70.2 75 75.2 77 72.8 75.2 78 79.8 80 80.2 82.5 83.5 84 84.5 85.8 87.2 88 88.5 89 89 90 90 88.8 83 77.2 73.8 74.5 81 85.5 77.2 69.2 71 72.8 74.8 75.2 77 75.8 68.5 67.5 67.2 72.5 70.2 66.2 63 61.2 58.8 56 54.8 56 56.5 54.8 52.8 49.5 49 49.8 48 46.8 43.5 39.8 36 31.8 30.2 28.5 30.8 31.8 31.2 30.8 31.2 31.8 30.5 27.2 24 24.5 25.2 25.5 25.5 24.5 24 22.8 22.2 21.8 20.2 18.5 17.5 16.2 17.8 21 15.5 10.2 8 5.8 7.5 7.5 9 13.8 31.2 40.2 11.5 -19.2 -69.5 -103.2 -51.2 -41.5 -79 -121 -172.5 -147.5 -160.5 -192.8 -245.5 -324.5 -337.2 -297.8 -277.2 -335.5 -338.2 -454 -514 -507.8 -473 -498 -455.5 -388.5 -348.2 -327.5 -334.2 -391 -357.5 -327 -310 -290.8 -277.2 -317.8 -337 -344.2 -334.5 -477.8 -531.2 -470.5 -431.5 -404.5 -366.5 -348 -391.5 -404 -383.5 -434 -412.5 -365.5 -342.5 -328.8 -299.5 -310 -368.2 -355.8 -369 -385.5 -384.5 -363 -333 -286 -229 -248.5 -295.5 -285.2 -229 -195.5 -165.8 -205.2 -160 -138 -187.2 -270.5 -211 -148.2 -152 -132 -115
-138 -118.5 -119.8 -104.5 -101.5 -143.2 -167 -186.5 -197.5 -192 -141.5 -155 -202 -152.8 -94.2 -67.2 -43.2 -47 -20.8 -52.2 -46.5 -83.8 -120.5 -103.5 -100 -82.2 -100.8 -93.8 -81.5 -71.8 -81.5 -77.8 -81.5 -81.5 -77.5 -72 -64.5 -63.5 -46.8 -40 -41 -26.5 -13.5 -37.8 -51 -52.8 -48 -55.2 -50.5 -23.5 -21.2 -34 -37.5 -23 4.8 7.8 7.2 9 12.5 17.5 23.2 17.8 10.8 10.5 17.2 27.8 35 42.2 47 43.2 43.5 45.5 47.5 49.8 52 55 69 74.2 76 76.8 68.5 70 70.8 71.5 74 72.5 69.2 74.5 77.2 80.2 82 74.8 73.2 75.2 76.8 79 75.2 77.2 79.5 80.5 80.8 80 85 87 87.5 88 87.5 86.8 86 85.8 86.5 86.2 86 86 85.5 79.5 74.2 73.8 76 83 83.8 69.2 71.2 73.8 76.5 76.5 75.5 74.5 73.2 68.8 70.5 73.2 74.5 71.8 65.8 61.5 60.5 58.5 54.5 52.5 53 52.5 51.8 50.2 48.8 47.8 46.8 45 43.8 42 38.5 35 31.5 29.5 27.5 28.8 31.2 32.2 33.5 34.2 32.5 29.5 26.5 24.5 24.8 24 24.8 25.2 25.8 26 23.8 21 19 17.8 16.5 15.8 15 16 17.2 16.8 16.8 14.2 11.8 9.8 8.5 14.8 30.2 55.2 75.5 23.5 -28.2 -29 -54.8 -68.5 -94 -69.8 -56.8 -59 -134.5 -134 -171.8 -214.2 -295.8 -333.2 -295.5 -261.5 -379.5 -390.8 -430.8 -451.5 -519.5 -525.2 -490.2 -502.8 -511.2 -460.2 -387.8 -345 -320 -313.5 -373.5 -353.8 -357.5 -354 -359.2 -282.2 -317 -335.8 -428.8 -487.8 -430.2 -441.5 -390.8 -408 -351.5 -349.5 -355 -400.2 -428.2 -444.8 -387 -391.5 -396 -355.5 -309 -270.2 -314 -322.5 -307.5 -385.5 -369.2 -326 -336.2 -335.8 -330.2 -379 -344.5 -286.5 -243.2 -187.2 -171.8 -143.5 -148 -225.5 -266.8 -201.5 -138.2 -107.5 -104.5 -101.8
-161.8 -122.5 -110.5 -110.2 -82 -113.8 -139.5 -166.5 -173 -193 -182.5 -179.8 -177.2 -118.5 -82.8 -66.2 -21 -12.2 -25 -76.8 -82.8 -76.5 -106.5 -86 -75.8 -70.5 -75.8 -79 -84.5 -65.8 -67.5 -60.8 -75.8 -123.5 -89 -84 -78.2 -74.2 -65.2 -55.2 -51.8 -18 -33 -60.8 -49.8 -37.8 -37.5 -17.5 -10.8 -9.8 -13.5 -7.2 -7 -3.8 6.2 8.2 8.5 9.2 11 15 18.8 15.8 12 13.5 19 28 35.5 43.5 47 44.2 43.2 45 47.2 50.5 54.5 58.8 72.8 73.8 76 73 71 72 72.5 73.2 74.2 73 73.8 76 76.5 78.2 77.8 78.8 78.5 77.8 79 79.8 78.2 80 81.2 82.5 83.2 84.8 86.8 89 90.5 90.8 88.8 87 87 86.8 86.2 85 83 81 80.2 75.8 73.8 76.8 85.2 88.5 84 74 76 76.5 76.8 75.2 73.5 72.2 71 69 69.8 70.2 71.5 69.5 64.2 60 59.2 57.2 53.8 52 51.8 50.5 50 49 48.5 46.8 45.2 43 41.2 40 37.8 35.5 33.5 31 29.8 30 30.5 30.5 31.5 32.5 31 29.5 28 27.5 27 26.2 25.5 25.2 24.5 23.8 22.5 21 18.8 16.5 15.5 15 15 15.8 16.2 15.8 15.2 15.5 15.2 15.2 17.2 21 29 34.5 20.8 -67.2 -67.2 -60.8 -105.5 -110.8 -119 -130.8 -154.5 -129.8 -125.8 -195 -252.8 -265.2 -198.5 -203.5 -219 -310.5 -334.5 -363 -427.2 -505.5 -518.5 -515.2 -468 -435.2 -476.8 -496.2 -478.8 -417.5 -386 -306.2 -401 -390 -352.8 -342 -352.2 -298.5 -304.8 -360.5 -402.8 -357.2 -404.5 -457.5 -453.8 -407.2 -380 -312.8 -347 -389.2 -465 -430.5 -413 -454.2 -467.5 -439.2 -389.8 -315.2 -273.5 -256.2 -251 -288.8 -299 -324.2 -276.2 -273.8 -281.8 -289 -251.8 -314 -292 -195 -138.8 -129.8 -142.5 -233 -269.5 -205 -150.8 -119.2 -109.8 -101.2
-224.2 -171.5 -131 -104.5 -82.8 -76.5 -113.5 -130.8 -137.8 -157 -167 -129.2 -94.2 -67 -34.5 -36.2 -4 -14.8 -60.5 -103.5 -113.8 -126.8 -110.5 -69 -83.8 -64.2 -54 -74.8 -126.8 -79.8 -58 -62.2 -83.5 -77 -60.8 -83.2 -92.5 -89.2 -64 -55 -47 -27.8 -17 -48.5 -48 -30.8 -2.8 -0.2 -6.2 -3.5 1.2 10 1.5 -5 6.8 8.5 9.8 9.8 9.5 11.8 14 12.5 10.8 13.5 19.2 29 39.2 47 48.2 41.5 40.5 42.2 46.5 51 55.5 64.5 72.2 74.5 75.5 74.2 73.2 74.2 75.2 76.2 76 76.2 77.5 80 80.5 78.8 76.5 77 79.2 80.2 81 81 81 82.8 83.5 84.5 84.5 85.2 86.8 89.2 91 91.2 89.5 87.8 88.8 89 87.5 85 82 78.5 76 75 77.5 78.8 84.5 86.2 81.2 77.8 79.5 77.5 74.8 71.5 69.8 69 67.8 64.5 66.2 68 68.5 66.8 63.5 61 59 56.2 54 52.5 52 51.2 49.5 48.2 47.2 45.8 44.5 42.2 39.5 38.5 37 36.2 35.5 32.5 31 31 30.5 29 29 29.2 28.8 28.8 29 30 29 28.2 26.5 24.5 22.5 21.5 21.5 21.5 19.5 17 14.8 15 15.8 17 17.5 17 15.2 15.5 16.5 19.5 23.8 25 31.8 11 -25.8 -144.2 -105 -63.8 -81.5 -115 -105.2 -82 -94.2 -126.2 -151.5 -190 -243.8 -284.2 -303.2 -274.8 -269.5 -319 -379.5 -382.2 -390.2 -501 -470.8 -406 -383.5 -409.8 -420.2 -434.8 -462 -421.2 -386.2 -307.8 -373.5 -457.5 -448.5 -395.5 -361 -301.8 -310 -314 -323.5 -346.8 -404 -419.5 -426.2 -363.5 -331.2 -321.2 -331.5 -363 -351.2 -351.8 -360.2 -408 -470 -448.2 -409.8 -377.5 -338 -301.5 -260.2 -215 -229 -320 -313.5 -357.8 -348 -353.5 -289.5 -221.2 -206.8 -159.5 -130 -122.5 -134 -162 -244 -192 -146.5 -147.8 -163.5 -163.8
-140.2 -152.5 -182 -157 -104.5 -85 -108.2 -166.5 -144.8 -122 -137.5 -100.2 -98 -73 -56.8 -17 -28.2 -59.5 -66.2 -97.5 -86.5 -104.5 -73.8 -60.5 -63 -70.5 -77 -73.8 -69.8 -56 -48.5 -35.8 -58 -55.5 -43.2 -64 -67.2 -59.2 -54.8 -48.8 -44.5 -38.5 -30.2 -25.2 -21.5 -20.8 -9.5 -5 -1.8 14.5 22.2 23 6.5 -5.5 7 9 12 12 11.2 12.8 12 8 7.5 13.2 20 31.5 45.2 51 48 34.5 34 36.8 43.8 51.5 65 69.2 73 76 73.2 74.8 75.2 76.5 78 79.5 79 78.5 78 79.2 79.8 76.5 78 80 82.8 82.5 83 81.2 83.2 85.2 84 84.5 85 84.2 85.2 86 88 89.2 90.5 91.8 91.5 91.5 88.5 85.2 81.2 77.2 78 79.5 80.2 79.2 80 81.5 81.2 78 76.8 75.2 70.8 67.5 64.8 65 64 66.2 67 66.2 63.8 62.5 61.5 60.5 59.2 57 54.8 54.2 52.8 50.8 48 45.5 44.2 44.5 44.2 42.8 40.5 39 37.5 37 35.8 32.2 29 29.8 30 28.8 27 24.8 25.8 27 28.5 29.5 29.5 28 25.2 22.5 20.2 18.8 19.5 19.5 19.8 19 16.2 16 17.2 19 20.2 18.5 17.8 17.8 19.2 21.5 23.5 25.2 48.5 5.5 -97.8 -147.2 -138 -112.8 -133.5 -126.5 -88.2 -93.8 -84 -99.2 -84 -142.5 -216 -245.2 -259.2 -264.2 -248.8 -313 -296.2 -259 -281 -349 -418.2 -485.8 -508.8 -481.8 -454.8 -396 -403.5 -449.5 -465 -396.8 -300.2 -349 -414.8 -408.5 -424.5 -334.8 -289.5 -324.5 -395 -426.8 -348 -372.8 -354 -319.8 -317.5 -349 -283.8 -336.2 -327.5 -332.2 -330 -336.8 -374 -342 -349 -333.8 -327.8 -358.5 -347 -340.2 -299.5 -236.5 -239.8 -234.8 -206.2 -216.8 -194.5 -172.2 -163 -159.2 -134 -124.5 -126.2 -127.5 -167.5 -140.5 -171.5 -221.8 -250 -283
-41.8 -56 -61 -70.5 -67.8 -47.5 -52 -51 -74 -84 -128.2 -130 -104.5 -104 -65.2 -16.2 -32.8 -66.2 -100.8 -176.8 -88.2 -65.2 -55.8 -60 -45.8 -60 -65.8 -70.8 -61.5 -41.2 -24.5 -44.5 -49.8 -39 -32 -56.5 -80.2 -55.2 -63.5 -65.2 -64.5 -71.5 -102.8 -104.2 -61.2 -73 -50.5 -28.2 -4.5 19.8 21.8 18.5 9.2 3.8 4.5 8.8 13.5 13 11 12.8 11.8 8 8.8 14.5 22.8 32.5 43.5 50 46 30.8 29.8 32.5 40.5 50 64 68.5 74.2 73.8 72.2 74.5 77 77.5 78 79.8 79 79.8 78.5 78.8 81 79.2 80.8 82.5 85.8 84.8 84.5 84.5 86.2 87 86.8 87.8 86 84.5 84 84.2 86 87.5 89.5 91.2 91.5 92.2 88.8 84.5 80.8 79.8 81.5 81.8 82 80.5 80.2 81 79.2 78.5 78 73.8 68 65.2 66 66 67.8 72.8 69.8 66.8 61.8 58.5 58.2 58.2 58.2 56.5 55 54.2 52 50 46.2 43.8 43 43 43 42.5 41.8 40 39.2 37 34 31.5 28.8 28.8 29.2 28.2 27.2 26.5 27 28.8 29 29 28 25.8 22.8 20.5 19.2 18 18 18 18.5 18.8 19 18.5 18.8 20 19 18 18.2 20.5 23 19 16 12.2 9 -59 -131.2 -131 -138.8 -162.8 -163.2 -166.5 -162 -189.2 -198 -137.2 -72.8 -131 -208.2 -235.5 -229.5 -206.5 -221.5 -264.2 -319.2 -358.5 -420.5 -469.2 -511.5 -516.2 -505.8 -478.2 -460 -430.5 -414.8 -393.8 -358.8 -440.8 -451 -417.2 -291.2 -357 -318 -296 -319.8 -400.8 -372 -387 -371.8 -330.2 -351.8 -303 -288.8 -321.5 -286.2 -286.5 -304.8 -319.5 -308.5 -312.2 -304 -323.2 -322.2 -306.2 -280 -319.2 -373 -350.2 -314.5 -267 -280.5 -261.8 -299.2 -291.2 -279.5 -249 -271 -187.2 -142.2 -157.2 -171.5 -117.8 -111.5 -119 -129.8 -161.5 -230 -249.5
-23.2 -28.2 -31.8 -31.5 -28.5 -29.2 -36.8 -29.5 -22.5 -19 -58.5 -118.2 -87.8 -84 -33 -9.2 -17.8 -39.5 -55 -68.2 -55.2 -57.2 -53.2 -47.8 -44.5 -43.5 -51.5 -62.2 -66 -57.2 -22.5 -28.8 -23.8 -34 -35.8 -62.8 -61 -71 -104.2 -100 -143.8 -177 -158 -127.5 -86.5 -73.8 -64.2 -45.5 -7.8 14.2 16.2 14 8.2 4.5 4 8.2 12 10.8 9.2 13.2 13.2 9 9.2 15.2 22.8 32.2 42.8 47.5 43.8 35 31 29.8 43.8 60.5 62.2 70 74.2 73.2 74.8 77.8 80.5 81.2 81.2 81 80.5 80.8 78.5 80.5 82.5 84 82.8 85.2 88.5 87 86.2 86.5 87.8 88 88.5 90.5 88.2 83.5 83.8 84 85 86.2 87.2 88 88.5 89 86.5 82.8 81.2 82 84 81 82 84.2 82.8 79.2 77.5 76.2 74.8 71.2 67.8 66 74.5 69.5 70 71.2 67.8 63.2 59 55.8 56 56.8 57 56.5 54 52.2 51 48.5 45.5 43.5 43 43 43 41.8 40.2 39.5 39.2 38 36.5 32.2 27.8 27.5 27.5 27.5 27.2 27 27.2 28.8 29.2 29 26.5 23.2 21 19.2 18.8 17.8 18 17 18.5 20.2 20.8 20.5 20.5 20 18.5 19.5 21 19.5 17.2 8.5 3.5 2 -28.2 -81 -106.2 -140.2 -157.5 -159 -164.8 -186.5 -226 -216.8 -224.8 -235 -210.2 -164 -218.5 -314 -306.5 -240.5 -288.5 -331.5 -396.8 -479.8 -538.2 -532.8 -502.5 -481.8 -509.5 -509.5 -471.5 -464 -451.2 -373.5 -357 -470.5 -473.5 -438.5 -336.8 -310.5 -299.2 -304.2 -298.2 -292.2 -291.8 -319.8 -400 -417.8 -357.8 -273 -258.5 -308.8 -275.5 -307.8 -310 -292.5 -279 -268.8 -313.5 -358.8 -363.5 -328.8 -337.2 -296.8 -279 -349.5 -335.8 -304.5 -352 -337.8 -320 -375.8 -303.5 -306.5 -273.2 -189 -193.2 -209.2 -228.2 -158.5 -119.8 -157.8 -236.5 -227.5 -213.2 -156.8
-27.2 -23.2 -30.2 -27.8 -26.5 -18 -24.2 -21.2 -25 -34.2 -38.8 -92.2 -63.5 -70.8 -16 -10 -8.5 -23 -26.8 -38.2 -36.8 -51 -55 -55.8 -48.8 -45.5 -35.5 -50 -64 -57.5 -29.5 -13 -34 -38.2 -46.2 -44.8 -48 -67 -78.8 -100 -161.2 -146 -118 -93 -81 -61.2 -35.5 -19.2 -8.2 2.8 8.8 8 6.5 3.5 4 8.2 12.2 9.5 6.8 16.2 17.8 10.8 10.5 16 22 32.2 44.8 48.8 47.5 44.2 38 36.2 52.5 59.8 65.8 74.2 73.2 73.2 77.5 82.5 85.2 83.2 81.2 82.8 82.2 80.8 79.8 81 82.5 85 85 87 89 87.8 86.5 87.2 91 93.2 93.2 93 89.8 82.5 83.8 84.2 85.5 85.8 86 85.8 85.2 84.8 84.8 83 82.5 83.8 85.2 83.5 83.8 88 83.5 77.5 75.5 73 69.8 68 68.8 75.8 73.8 66.5 67 66.5 62.5 58.2 55.2 53.2 55 56.5 56 55 52 51 50.2 47.5 44 42.8 43 42.5 42.5 40 37.8 37.8 39 39.5 40.5 35.2 28.8 27.8 26.5 26.8 26 25.5 26 28 28.5 27 24.8 21.2 20.2 19.5 19.8 20.5 19.5 17.5 19.2 21.5 21 20.5 20.5 20.5 20.2 21.8 23.5 17.2 11.8 2 2 -5.8 -48 -88 -120 -142 -162.2 -202.2 -244.8 -304.5 -304.2 -254 -215.2 -263.5 -258.5 -249 -222 -261.5 -250.5 -223.5 -273.5 -337.2 -393.2 -447 -464.5 -447.2 -449.5 -441.8 -465 -472.5 -501.8 -472 -447 -399 -356 -390.8 -456.2 -464.2 -286.5 -259.5 -226.8 -228 -300.2 -283.8 -267 -243 -328.2 -347 -321 -262 -224.2 -250 -244.8 -271.2 -297.5 -257.8 -252.8 -298 -349.8 -405.2 -376.2 -303 -288.8 -289.5 -258.5 -266.8 -231 -227.8 -344.2 -264.8 -241.8 -310.2 -274.5 -253.8 -229.2 -162.5 -201.5 -208.2 -172.8 -180.2 -157 -135.2 -202.5 -236.8 -203.2 -115.8
-19.8 -20.2 -23 -26 -26.5 -14.2 -13.5 -13.8 -30.5 -59.5 -57.2 -61.5 -47.2 -50.2 -54.2 -10.2 -5 -12.8 -14.5 -31.2 -56.5 -67.2 -55.5 -46.5 -51.8 -52.2 -46.5 -32.5 -41.8 -34.2 -36.5 -12.8 -36.8 -45.5 -38.2 -41 -41.5 -54.5 -63.8 -73.8 -74 -70 -70 -65.5 -50 -35.5 -23.2 -18.2 -10.8 -0.2 0.5 0.2 2.2 4 4.5 8 10.8 8.8 8.8 15.8 18.2 14.5 15.5 20.5 25.8 35.2 45.2 49.5 50.5 48 43.8 54.5 56.5 61.2 70.8 73 71.2 75 79.5 83 88.2 87.8 84.8 86 84 80 80.5 83 85.5 85 84 86.8 89.8 88.8 87.5 88.5 91.5 93 91.5 93 90 86.5 86 86.5 87 87.5 86.2 84.5 84 83 85.8 87.5 83.5 83.8 86 83 81.2 79.8 75.5 75 73 70.8 67.2 65.2 63.8 66 63.2 62 60.5 59 56.8 54 53.5 54.2 54.5 54.8 53 50.5 49.8 49.5 49.2 48.2 44.8 42.8 43 39.8 37.5 36.8 36 36 36.8 37.5 38.2 37 35.2 32 29.8 27 24.8 24 24.8 25.8 25.8 24.8 23.8 22.8 22.5 23.2 22.5 23 20.8 18.8 19.5 20 19 18.8 18 20 21.2 19.5 14.8 11.2 4.5 2 -15.8 -75.8 -128 -147.5 -158.8 -184.8 -212.2 -235.8 -289 -313.2 -314.5 -247.8 -209.5 -213.5 -242 -210.5 -212.8 -175.2 -177.2 -186 -231 -268 -274.2 -356 -412.5 -447.5 -439.2 -422.5 -408.8 -418 -446.8 -469.5 -502.5 -484 -421.2 -348.8 -427.2 -355.2 -252 -221.2 -221.2 -340.8 -351.5 -278.2 -234.8 -236.2 -265.5 -264.2 -230.8 -223 -205.2 -239.2 -250 -248.5 -241.2 -255.5 -318.2 -398 -404.8 -509 -540.2 -458 -375.8 -332.5 -314.2 -263.2 -237 -199 -210.5 -194.8 -172.8 -184.2 -193.5 -219 -223.5 -185 -170.8 -188.5 -184.5 -190.8 -148.8 -167.8 -187.2 -149 -116.5 -105.5
-7 -29.2 -54.2 -31.2 -13.2 -35 -46.2 -31.8 -34.2 -28.5 -37.2 -26.8 -24.5 -14.2 -27.8 -40 -0.5 -41.8 -35.8 -49.5 -58 -62 -59.2 -47.2 -40 -46.5 -47.8 -41 -19.5 -14.5 -15.8 -22.5 -40.5 -39.8 -29 -34 -36.5 -43 -50 -45.8 -41.2 -41.8 -39 -36 -29.8 -22 -16.8 -11.5 -4.8 -1.5 -2.2 -2.8 -4.2 3.8 4.5 5 6.2 7.2 8.5 13.8 16.8 18.8 22.8 25.8 29.2 37.5 45.2 48 49.2 47.8 58.8 61.2 64.5 71.8 69.8 67.2 71.8 76.8 81.5 88 91 89.8 87.2 82.2 80.8 82 80.8 86.2 86.2 84 84 88.5 90.8 93.5 91.8 92.5 92 92 91.5 91.5 90.2 92.2 89.2 89.2 89 88.5 85.8 84.2 85.2 86.5 88.8 86 86.5 86.8 85.5 83.8 83.5 78 74.5 74 72.8 70 65.5 63.5 61 59.2 58.8 58.8 57.2 55 54 52.5 51.8 51.5 51.8 51.2 50.8 48.5 47.5 47.2 46.2 46 44.2 43 41.8 36.8 32 33.2 33.2 35.2 36.2 35.5 35.2 34.8 33.8 32 31.8 28.2 24.8 23 24.2 24.5 24.5 24 24.5 25.2 23.2 22.2 21.5 21 20.2 19 19.8 20.5 20 19 17.5 18.5 27.2 16.2 7 3.8 -9 -54.2 -111.2 -148.8 -168.5 -200.2 -220.8 -229 -254.8 -293.5 -315.2 -279.8 -238.8 -240.2 -240 -228.5 -182.8 -177.8 -165.5 -163.8 -185.2 -211.8 -276.2 -278 -327.8 -363 -423.2 -452.5 -446.2 -444.8 -450.5 -431.2 -426.2 -407 -457.8 -472 -405 -301.8 -343 -325.8 -369.8 -333.8 -288.5 -214 -227.5 -219.5 -293.8 -334.5 -296.5 -234.8 -202.8 -190 -201.8 -204.5 -242.2 -227.2 -250.2 -295.8 -290.8 -420.5 -502.2 -625 -544.2 -558 -477.8 -383.8 -297.2 -256.5 -265.2 -303.2 -287.2 -248.5 -213 -157 -140.8 -141 -146.2 -149.2 -207 -234.2 -203 -161.2 -123 -106.2 -113.5 -108.5 -109 -98.5
-35.5 -15.5 -30.2 -9 -25 -32.5 -36 -28.8 -12.5 -23.5 -25.8 -8.2 -9 -19.5 -38.2 -53.5 -15.2 -41.8 -34.8 -65.8 -66.8 -55.8 -53.5 -40.8 -32 -40.5 -36.5 -24.2 -20.8 -6 -20.5 -43.8 -31 -30.2 -25.5 -22.8 -33.5 -32.5 -27 -17 -17.5 -19.2 -21.8 -20.2 -17.5 -15.2 -17.5 -12 -14 -11.2 -14.2 -11.5 -12 -8.5 -7.8 -8 0.5 5.8 8.2 13.2 18.5 23.8 28.5 30 32 38.5 45 48 52 58.5 61 65.8 71.2 72 68.8 70.5 74.2 78.8 87 89.5 92 92 83.2 81.2 83.2 83.8 82.5 87.2 86.5 85 86.2 90 92 92.2 90.8 93.2 93.5 92.2 92.5 92.5 91.5 91.8 90 89.5 88 86.5 85.2 85 87 88.2 88.8 86.5 88.2 86.8 85 84 83.8 78 76.2 75.5 74 68.5 66.2 64.8 60 57.5 56 56.5 56.2 55.8 54.5 52.8 51 50 49.8 48.5 48 47.2 46.8 45.2 43.2 41.8 41 40.2 40.5 38 35 35 35 35.8 36 34.5 33 32 30.5 29.2 28.5 27 25 24 25 26.2 25.5 24.8 23.8 23.2 21.2 19.8 20 20.2 21.8 22.5 20.2 19.2 19 17 15.8 11 10.2 2 -15.2 -39.2 -96.8 -132.5 -139.5 -166 -173.2 -191 -210.8 -238 -285 -312 -301.5 -263.2 -213 -188.5 -225.2 -213.5 -183 -162.5 -177.8 -244 -280.8 -312.8 -348.5 -427.2 -427.2 -452.8 -466.8 -458 -453.2 -501.2 -486 -461 -464.5 -455.2 -396.8 -371.2 -395.5 -351.5 -358.2 -450.5 -453.8 -431.2 -333.8 -253.5 -266.8 -217.2 -300.5 -321.5 -264.5 -207.5 -188.5 -235.2 -262.8 -224.2 -227.2 -225.5 -270 -307.2 -276.5 -377.5 -474.5 -513.8 -407.5 -429.5 -338.5 -247 -216.5 -202.5 -194.2 -220.2 -235 -215.5 -186.5 -203.8 -190 -208.5 -219 -169.8 -140.5 -133.8 -127 -108.5 -93.8 -91.2 -87.8 -84.5 -88 -87
-36.8 -39.5 -25.5 -31.2 -37.8 -47.5 -27.5 -19.2 -9.8 -27 -35.2 -31.5 -33.8 -29.5 -35.2 -57.8 -63.8 -6.8 -5.8 -49 -46.5 -37.5 -40.8 -33 -32 -21.5 -17.2 -1.8 -4.2 -25.2 -30.8 -28.5 -20 -20.8 -23.8 -19.8 -18.8 -15.5 -10.8 -5.5 -7.8 -8.2 -9 -10.5 -14 -19.5 -15.8 -18.5 -19.2 -22.5 -26.2 -29.5 -25.2 -18.5 -17.2 -9.5 -0.5 7.8 9.5 15 21.8 28.2 33.2 31 32.5 40.5 47.5 52 61.5 63.5 66.2 69.8 71.8 71.5 72 74.2 78 82.8 87 89.2 91 85.5 82 83 85.5 84.5 85.2 85.5 84.8 85.8 86.8 90.8 92.5 90 88.5 93 95 94.8 93.5 94.8 94.2 89.5 89.5 88.2 87 84.8 85.8 86.8 89.2 89.5 87.5 88.8 90 88.2 85 87.2 84.8 78.8 77.5 74.5 69.8 66.8 66 63.8 59.2 57 55.2 56 56.2 54.8 54.8 54 51.5 49.8 49.5 49.2 48 46.5 46.2 43.8 41.2 39.8 38.5 37.2 40 40.8 39.5 38.5 38.2 36.2 35.5 34.2 32.5 31.5 29 27 25.8 26.5 26.5 27 26.8 26.8 24.8 23 21.5 20 19.2 18.5 20.8 22 25.2 30.8 14 9.5 18.5 10 7.5 -2 -37.5 -83 -72.5 -137.8 -119.5 -123 -153.8 -178.5 -188.2 -215.2 -247 -267.5 -264.8 -249.2 -234 -194.5 -168.2 -179.2 -194.2 -207.5 -166.5 -172.5 -262 -242.8 -279 -376 -475 -493.2 -497.8 -515.2 -483.2 -445.2 -417.8 -499 -527.2 -552.5 -559 -517.8 -462.8 -425.5 -400.5 -390.2 -500.8 -524.8 -470.2 -413.8 -433.2 -458.2 -366.5 -256 -202 -225.8 -218 -193.8 -212.8 -274.2 -312.5 -307.8 -312.8 -324.5 -330.8 -311.5 -296.8 -383.2 -461.5 -409.5 -366.5 -308 -298.8 -231.2 -206.2 -200.2 -201.2 -204.5 -241 -267.8 -283.5 -232.2 -178.5 -153.5 -142.2 -128.2 -107 -99.5 -93.8 -99.8 -103 -98.2 -87.2 -85 -80.2 -78.2
-59.8 -34.2 -36.2 -67 -59.5 -43 -19.5 -17.5 -30.2 -26.8 -38.8 -45 -37.2 -36.5 -49.5 -48.5 -34.5 1.2 2 -3.2 -14.5 -34.8 -33.5 -26.5 -25 -9 1 -4 -15.2 -21.5 -14.8 -8.2 -5.5 -5 -4.5 -4.5 -0.5 -2.5 -4 -1 -0.2 -6 -15 -16 -16.8 -17.2 -11.5 -16 -18.8 -20.8 -28.8 -23.2 -12.8 -13.8 -13.8 -2.5 10.8 12.2 13.5 17.5 23.5 26.8 27.2 27.5 31.8 47.5 58.8 67 66.5 66.2 67 67.5 67.2 68.5 73.8 77.8 83.5 87.5 89 91.2 89.2 85.5 84.5 86.5 86.2 85.2 86.2 85 85.2 87 88.2 91 90.5 89.5 89 91.5 93.2 97.5 95.5 94.2 94.2 91 90.2 86.8 86.5 86.5 88.8 93 94 90.5 88.5 90.8 92.5 90.5 84 84.2 82.8 79 76.8 72 70.8 67.2 62 60.8 59 57.8 57.8 57.5 56.5 52.8 54 55.8 51.8 48.5 49.2 50.5 48.5 47.5 46 43 41 40.2 38.2 37 38.8 40 41 39.8 38.8 35.2 32.2 32.8 33.8 31.5 28 27 27.5 28.2 30.2 32.2 28.2 25 23 20.2 19 18.2 19.2 21.8 26.2 29.2 24.2 26.8 -9 -42.2 5.2 -7.8 -52.5 -84.5 -97.5 -131 -149 -79 -83.2 -75.8 -118.2 -185.5 -237 -289.5 -258.8 -262.2 -246 -199 -154.8 -126.2 -151 -195.2 -199.2 -190.8 -162.2 -196.2 -218 -256.2 -328.8 -427.2 -456.2 -441 -457.5 -486.2 -475.2 -454 -398 -484.8 -488.8 -518.2 -579.2 -567.8 -552.5 -542.2 -522.2 -526.8 -555.5 -490.8 -381 -349.2 -404 -329.5 -295.8 -233.5 -174.5 -173.8 -174.2 -199.2 -219.8 -258 -311 -359.8 -372.8 -289.5 -269.2 -282.8 -273 -349.8 -383.8 -373.5 -357.5 -378.5 -298.5 -239.8 -217.5 -226 -223.8 -219 -313.5 -270.2 -192.5 -169.5 -157 -141.5 -122.8 -111.5 -102.5 -109.5 -107.5 -98 -93.5 -88.2 -85.2 -76.2 -75.5 -80.5
-61.8 -56 -55 -79.2 -71 -52 -40 -33.5 -31.5 -35.5 -38 -29.5 -42.2 -47 -42 -28.8 -13.8 1 2.2 4.8 0 -30 -28.8 -21.8 -21.8 -15.5 1.5 6 2.8 2.5 4.8 4.2 6.8 5.8 6.5 7 3.8 0 4.5 4 0.5 -4.2 -11 -9.2 -6.8 -4.2 -1 0.5 -2.8 -6.8 -11.8 -5.2 -3.8 -8.8 -2.5 8.8 18.8 17.8 13.8 19.5 24 22 15 27.2 41.2 63.5 66 66 66 66 68 66.8 68.8 72.5 77.5 82.5 89 89.8 88.2 87.8 88.5 89.5 88.5 88.5 87.5 86.8 86.2 86 87.2 88 89.2 92 91.2 89 89 93.5 96 98.8 93.8 93.8 94 87.8 87.2 89.8 91.2 93 92.2 92.5 95 91.8 89.8 95.8 92.2 87.8 81 80 76.8 75.2 73.5 71.2 69.5 63.8 60.2 59.8 59.8 58.5 56.8 56 55.2 54 52.8 52.2 50.2 49 49 48 46.5 44.5 44 42 40 38 38 38.8 39 38 36.8 37 37 35 31.5 32.8 33.8 32 29.2 29.2 29.2 27.8 26.2 26.2 25.8 25.2 22.5 18.5 15.5 14.5 16.8 24.8 27.2 42.2 7.2 -22 -101.8 -134.2 -122 -99.5 -103 -126.2 -121.5 -129.2 -151.5 -128.8 -135 -143.2 -145.8 -108.5 -138 -168.8 -155.2 -158 -134.8 -144.2 -137 -148.5 -178.5 -167.2 -180.2 -175.2 -168.5 -255 -327.8 -391.8 -424.2 -390 -425.2 -460.8 -424.2 -420.2 -459.2 -443.8 -382.2 -486 -471 -489.5 -540.5 -525.5 -522.5 -474 -467.2 -480.5 -405.5 -385.8 -366.8 -351.2 -298.2 -264.5 -225 -188.5 -160 -179.8 -191.2 -219.5 -239 -262.2 -307.2 -305.2 -308.2 -250.5 -252.5 -297 -364 -451.2 -445.5 -400.5 -425.5 -379.8 -289.8 -269 -282 -335.8 -363.5 -300.8 -208 -181.5 -174 -201 -179.5 -144.2 -131.2 -116.5 -123.2 -119.2 -109.2 -103.5 -96 -85.2 -83 -81 -74 -73.8
-39.8 -52.2 -53.2 -69.5 -63.2 -59.5 -46.2 -35 -24 -16.8 -24.5 -24.8 -46.2 -43.5 -84.2 -68.5 -38.8 -4.5 -0.5 4.5 -0.8 -31.2 -25.2 -14 -14.8 -10.2 6 10 10 9.5 10.8 11.5 13.5 13.5 13.5 12.5 12.2 9.8 5.5 2.2 -6.5 -9 -3 -0.2 1.8 4.5 7.8 10 8.8 5.5 2.5 0.5 -4.8 -11.2 5.8 18.5 25.8 23 21.8 29.2 32 28.8 28.2 44.5 63.5 69 68 66 66.8 68.8 70.8 70.2 72.8 76.5 81.5 84.5 85.8 85.5 87.5 87.5 86.2 86.2 89 89.2 88 87.5 86 86 88.8 90.5 90.2 89.5 89.2 90 91.2 96 98.2 95.2 93.2 94.2 95.2 92.2 90.8 92 92.5 92.8 92.2 91.5 94.5 92.8 94.5 94.2 90 84.2 79.5 77 74.5 72.8 74.5 69 65.2 62.2 60.5 60 59.5 57.5 56 54.8 53.8 53.2 52 50 49 48.8 48.2 47.8 46 43.5 42.5 41.2 39.5 38.2 38 38.5 38.2 36.8 35.2 35 35.8 35.8 35 34.8 35.5 33 31 29.8 28.8 26.2 24.5 23 23.2 23.2 20 15.8 11.8 7.8 5.8 6.8 2 -13.5 -105.8 -95.2 -131.8 -149.5 -170.8 -165.8 -176.5 -169.2 -185.2 -191 -151.8 -178.2 -213 -233.8 -197.5 -122.8 -74.8 -72.8 -96 -161.2 -174.8 -160.2 -199.2 -215.2 -189.2 -168.2 -154.5 -169 -215 -351.8 -409.5 -390.5 -428.2 -444.8 -418.5 -427.2 -432.5 -394.2 -426.8 -440 -369.2 -484.5 -463.5 -401.8 -450.8 -449.8 -426 -387 -355 -426.2 -405.2 -314 -286.2 -309.5 -244.5 -206.8 -193.2 -164.5 -163.2 -180 -187.2 -200.2 -262 -375.2 -287.5 -248 -251.8 -220 -251.5 -371.8 -445.2 -437.8 -440.2 -399.2 -450.2 -437.8 -343.2 -286.5 -278.5 -268.5 -243.2 -204.8 -198.5 -231 -222 -201.5 -169.2 -172.2 -158.5 -139.2 -132.2 -128 -119 -105.2 -87.2 -84.8 -89.2 -90.5 -83.8 -105.8
-54.8 -57.2 -73.5 -78.2 -68 -55.8 -38 -9.8 -0.5 -2.2 -2.8 -19.5 -32.8 -38.5 -61.8 -54.2 -39 -2.2 2.8 5 3.2 -13.2 -30.5 -11.8 -5 4 16.2 16 13.5 13.8 15.5 17.2 17.8 17.2 17.2 17 17.2 14.2 10 3.5 2.2 4.2 6.5 8.8 9.8 13.2 15.2 18 16.8 14.8 14 12 10.2 14.8 26.5 33 35.5 30.5 35.5 45.2 46 39.5 44 62.5 66.5 67 66.2 67.2 68.2 72.2 74 73.5 75.8 79.2 83.8 84 84.2 83 82.5 81 81.5 83 91 90 89 86.8 84.5 88 91.2 91.8 92 92 90 90 92.5 96.5 98.8 93 92.8 91.8 94 98.5 95 93.2 92.2 89.2 90.8 90.2 96 94.2 97 91.5 85.8 80.5 79 75.5 72.8 71.2 67.8 64.2 62.2 60.2 59.2 59.8 59 57 56 54.5 52.5 51.8 49.8 48.2 46.2 45 47 49 46 42.8 42.5 42 39.5 38.8 37.8 36.5 36.5 36.5 35.2 34.8 35.2 35.5 36.5 35 35.5 31.5 29.2 27.5 26.5 23.5 23.8 21.8 18.2 20.8 15.8 14.5 6.5 2.2 1 -37 -65.5 -136 -153 -151.2 -152.5 -166.2 -194.5 -218.2 -230.2 -244 -251.5 -197.2 -201.2 -237 -238.5 -232.2 -195.5 -176.8 -149.8 -165.8 -208.5 -202.5 -197 -200.2 -192.8 -188.8 -160.5 -169.5 -165.8 -295.2 -351 -333.5 -355.5 -397.8 -406.5 -403.2 -412.2 -377 -354.8 -432.8 -382.5 -407 -346.8 -448 -481.5 -427.2 -342.2 -328 -393.8 -363 -317.2 -317.8 -282.2 -268 -232 -257 -267 -224.2 -192.5 -184.2 -178.2 -154.5 -173.8 -206.8 -286.5 -243.2 -252.2 -317 -320.2 -332 -230.8 -298.2 -357 -399.2 -459.2 -375.8 -348 -369 -364.2 -357.8 -320.5 -265 -216.8 -232.8 -239 -218 -180.8 -151.5 -136.5 -134.8 -131.2 -137.2 -139.8 -127.5 -102.2 -97.5 -105.8 -109.8 -98.8 -129.5 -176.8 -176.5
-59.8 -48.5 -60.8 -55.8 -62.8 -36.8 1.2 4.5 3.5 -1.2 -22.2 -44.2 -40 -38.8 -49 -38.5 -0.8 3.8 5.8 5.5 1 -4.5 1.2 7.2 10.8 14.5 18.5 20.2 20.2 19.8 21 21.8 21.5 21 20.8 19.5 18.8 14.8 9.5 3.8 5.5 9.5 11 11 14 17.5 18.5 18.8 20.2 20.5 22.5 22.5 24.5 30.5 40 42.8 44.2 44.5 50.5 54 53.8 51 56 66.2 65.8 67.2 68.2 68.5 71.8 74.5 76.5 77.5 77.2 83 83 83.8 84.5 84.5 78.8 78.2 82 84.8 91.5 90 88.8 87 85.5 88.5 91.8 92.5 92.5 90.8 90.5 91 92.5 95 95.5 92 91 90.5 94.2 100 96.5 92.2 92.5 95 93.8 94.8 97 96.8 92.2 85.8 82.2 79.2 78.8 74 72 69.5 64.2 62.8 61.5 59.2 58.2 58.5 57.8 57 56.8 54.2 52 50.8 48 45.8 45 45.2 45.2 47 46.2 45 43.2 42.2 39.5 37.8 36.8 36 35.8 37.2 37.5 34 33.2 31.2 28 27.2 26.8 23.8 24 19 22.8 8.5 7.2 7.2 1.5 -9 4.5 15 2.5 -2.8 -89.5 -127.2 -174.2 -189.5 -199.2 -203 -203.5 -208.2 -222.2 -248 -266.8 -258.5 -254.2 -266 -281.2 -276.8 -250.5 -217.8 -187.2 -192.8 -200.2 -229.2 -203 -235.2 -192.8 -189.2 -154.8 -174.8 -169.5 -176.2 -272.5 -324 -373.5 -419.2 -445.2 -435 -391.5 -374.2 -356 -381 -389.8 -325.2 -412.5 -359.5 -350 -397.8 -436.2 -351 -313.5 -398.2 -401.5 -398 -312.2 -263.5 -218.2 -229.5 -206.2 -216.2 -198.5 -191.2 -176.2 -167.2 -157.5 -152.8 -143.8 -142.5 -159.2 -148.8 -327.8 -389.2 -360 -317 -233.2 -290.2 -383.5 -468 -423.5 -385.8 -358.8 -342.8 -289.2 -300.2 -267.2 -253.2 -251.5 -220 -177.2 -145.8 -121.5 -103.5 -88.8 -85.2 -89 -106.2 -106.5 -101.5 -124.8 -124.5 -112.5 -122.2 -106 -101.5 -113 -180.8
-19.8 -15.8 -23.8 -13.5 -15.5 1 13.8 14.8 10.2 -17.2 -19.2 -14.2 -4.2 -16 -9.5 3 8 10.2 9.5 1 -9.5 3.2 9.5 15.5 19.2 21 22.5 24 24.2 23.8 23.8 24 23.8 23 22 20.5 17.8 13 8.5 8 6 14.8 14.8 14.5 19 22.8 23.5 24.2 26.8 29.8 33.2 35.8 38 42.5 45.8 48 52.5 55 58.8 58.5 58 63.2 66.2 68.2 68.2 69.8 69.8 72.2 76.5 77.2 78.5 79.5 81.8 83 83.8 85.5 85 84.8 84.5 85 86 88.2 90 89.2 89.5 89.5 89 91.2 92.5 92.5 92.8 89.5 89.8 91 92.5 93.8 95 92 91.2 89 90.8 93.8 93.5 91.5 91.8 95 97 97 96 93.5 87.5 82 78.5 76.8 73.8 72.5 71.2 65.2 62.2 61.5 60.2 58.5 57.5 57.5 57 56 55.2 53.5 52 51 46.8 42.8 43.2 43.5 43.5 44 44 45 43 41.5 39.2 36.5 36 36.8 37.5 36.8 35.2 32 30.8 26.2 19.2 12 13 5.8 -4.8 -22 -50.8 -66 -87.2 -95.5 -98.5 -123 -43.8 -36.8 -62.5 -118.8 -146 -160.2 -202 -203.8 -217.2 -218.8 -238.2 -268 -284 -254.8 -230.5 -216.8 -270.8 -280 -287.2 -261 -241 -212.5 -203.5 -165.2 -176 -218.5 -213 -195.2 -186.8 -148 -186.5 -172.5 -175.8 -247.8 -272.2 -342.5 -411 -353.2 -356 -366.8 -373.8 -391.5 -374.8 -336.8 -378.2 -323.8 -392 -355 -316.5 -357.2 -417.8 -447.2 -422 -305.8 -371.8 -380.2 -259 -229.8 -208.8 -203.5 -200.8 -176.2 -183.2 -182 -201.8 -288.2 -278.5 -261.5 -211.8 -181.8 -207.8 -163.8 -319.5 -304 -266 -227.2 -280.8 -362.2 -407 -395.5 -345.8 -359.5 -307.2 -284.5 -302.8 -306.2 -273.5 -225.2 -180.8 -149 -112.8 -94 -78.2 -71.2 -71.2 -74.8 -70 -72.5 -97.8 -122.2 -232.8 -225.5 -203.5 -158 -153.5 -110.5 -85 -84
15.5 14 21 17.8 22 21.5 24.8 24.2 23.8 18.2 14.5 18.5 14.5 16 15.2 20 18 16.5 14 8.2 6.5 8.8 16.2 21.8 25 25.5 27 27.8 27 26 24.5 23.8 23.8 24.2 24.2 21.5 18.2 12.5 -8.5 9 17 20 17.8 18.2 24.8 26.8 28.2 31 34.5 38.5 42.2 46.5 48.2 50.8 48.8 50 55.2 59.2 61 61.8 63.5 64.8 66 68.8 70.5 72 75.8 77.5 78.5 79.5 80.2 81.2 81 83 85.8 86 85.5 90 91 90.5 89.5 89.2 88.8 90.2 92.5 93.2 93.8 93.2 93 91.2 90 90.2 89 93 91.8 92.2 93.2 92.5 91 90.5 88.5 89 91 90.5 95 94 92 90.2 91 87.5 84.5 78.5 76.5 73 71.5 68.8 65.8 62.8 60.2 60.2 59.5 57.5 56.2 57.5 57.8 55.2 53 52.2 51.8 52.2 45.8 38.5 40 42 41.5 40.5 40.8 41 40.8 40.2 38.2 34.2 34.8 36.8 36.2 34 31.5 28.5 26.5 18.2 6.5 -28 -14 2 -41 -105 -109.5 -119.2 -115 -145.2 -140.8 -126.5 -115.5 -106 -152.5 -182.5 -168.8 -137.5 -177 -188.8 -147.5 -207.8 -282.2 -252.5 -249.8 -256.5 -213.2 -208.5 -236.2 -261.8 -286.5 -239.5 -208 -205.2 -203.5 -155.8 -170.8 -194 -196.2 -179.2 -136.5 -151.8 -136.5 -179.2 -237.8 -267.5 -327.5 -325.5 -284.2 -337 -362.5 -318.8 -327 -386.5 -378 -368.8 -335.2 -257.2 -325.2 -263.8 -378.5 -483.2 -492.2 -446 -367 -289 -309.2 -259.2 -220.5 -197 -193.5 -191 -191 -230.5 -322.2 -370 -371.2 -352.2 -328.8 -287.8 -291 -356.2 -407.8 -260.5 -171.8 -206 -317.8 -388.5 -387.2 -351 -333.8 -344 -322 -273.8 -296.5 -333 -308 -243.8 -163.2 -92 -80.8 -73 -69.2 -67.5 -66.2 -64 -63 -65.2 -71.5 -63.8 -82.2 -101 -134.2 -160.5 -164.8 -172.8 -160.5 -159.8 -127.5 -81.2
27.8 27.2 30.8 28.5 27.8 26.5 26 27.2 27.5 27.2 25.8 25 22.2 23 24.5 25 22 20.5 19.2 18.2 18.5 20.5 23.5 26.5 28.2 31 32.2 34.2 33.2 32.5 26.5 23.8 22 25.5 26.5 22.2 20 16.5 14.2 19.5 23.5 26.2 25.2 26.5 31.8 32 33 36.2 39.2 43.2 45.8 49.5 49.8 48.5 46 50.8 59 61 62 63 64.2 66.5 69 71.8 72 75.2 77.8 79.2 79.8 80 80 80.5 82.8 85 86.2 88.5 92 94 91.2 89.5 89.2 88.5 89.5 92.5 95 97 95.5 93.5 93 91 91.2 91 89.5 94.2 92.5 91.5 91 90.8 89.8 91 90.2 92.5 94 93.2 99.2 97 88.5 86.2 84.8 82.5 82 76.2 74.2 72.2 70 66.5 63.8 61.5 60 59.8 58.5 56.8 56.2 57 56 53.5 51 50.5 51.5 51 46.8 41.8 40.2 40.2 40 39 38 38.8 38 37.2 35.2 32.8 32.8 31.8 28.5 28.8 28 24.5 21 7 -14.8 -138.8 -117.8 -45 -17 -44.5 -69.5 -79 -115.8 -141.8 -110.5 -124.8 -154.8 -137 -133.2 -162.2 -146.8 -109.2 -120.2 -121.2 -127.8 -187.5 -233 -227.8 -222 -256.5 -235.8 -202 -193.2 -258.2 -268.5 -245.5 -225.2 -186.8 -162.2 -161.8 -140 -122.8 -120 -121.5 -123 -164.2 -218.2 -296 -325.2 -311.8 -265.8 -243.2 -286 -325.2 -315.5 -319 -312.2 -344.5 -342 -267 -255.2 -268 -242.8 -345.8 -456.5 -389.8 -437.5 -463 -450.2 -346 -231.5 -202 -208.8 -204 -219.8 -258.5 -318.8 -398.8 -437.8 -414 -409.8 -402.8 -373.2 -344.8 -375 -402.8 -383.2 -309.2 -176.5 -280 -317 -312.8 -258 -252.2 -277.2 -280.8 -269.5 -278.2 -302.2 -288 -228.5 -146.2 -82 -112.8 -147.2 -137.5 -98.2 -100.5 -182 -171.8 -98.5 -73.8 -94.8 -82 -83.8 -83.2 -142.2 -120.5 -100.2 -101.5 -115.2 -136.5 -88.2 -97.2
34.8 34.2 33.5 32.5 29.5 29 27 28.5 27.8 28.2 30.5 31 28.5 27 28.8 27.5 25.2 23.2 25.5 27.8 27 27.2 29.2 31.8 34.2 42 49 47 49 48.8 41.8 30.2 25.5 29.5 28.5 21.2 17.8 23.8 26.8 31.5 34.5 39.5 38 38 39 39.2 38.8 40.5 41.5 43.5 46.5 48.5 49.8 50 53 60.2 60.8 61.5 62.2 64.5 65.5 68.8 72.5 73 73 76.5 78.2 78.8 78.5 78.5 79 81.5 81.8 81.2 85.5 91.8 95.5 96 91 87.8 88.2 90.5 93 92.5 97.5 99 95 93.5 93 92 93.2 91.5 93 97.2 95.2 93.2 90.5 91 91.5 92 95.2 99.5 99.5 99.8 98 94.8 85.5 81.2 80.2 81 77 75.8 73 68.5 65.5 63.2 61.5 60 59 58.5 57.5 57 58.2 55.8 53.2 51.2 49.2 49 49.8 49.5 48 45.8 42.2 40 39.5 37 34.8 34.8 33.5 31.5 32 32 30 28.5 26.2 23.2 26 13.8 12 -1.5 -84.8 -167.8 -160.5 -135 -53.8 -28 -17.2 -44 -86.5 -79.5 -109.8 -142 -140.5 -105.2 -134.5 -159 -145 -112.2 -83.5 -156.8 -209.2 -242.8 -203.2 -240 -196.2 -162.8 -177.2 -212 -179.5 -196.5 -242.5 -229.5 -237.2 -162.8 -123.2 -131.5 -113 -174.5 -210.2 -210.2 -206.5 -255 -290 -323.8 -291 -232 -202 -184.8 -232 -249.2 -241.8 -261.5 -332.8 -411.2 -416.5 -388.5 -337.8 -198.5 -188.8 -324.8 -343 -330 -392.5 -382 -315 -266 -235.8 -240.2 -236.8 -252.2 -347.2 -407.2 -430.5 -421.5 -414 -404 -398.2 -374.5 -393 -394.8 -381.2 -356.8 -305.2 -276.5 -197 -179.5 -171.8 -214.2 -234 -290.5 -332 -328.5 -313.8 -276.5 -237.8 -189.2 -109.8 -92.2 -93.8 -144.8 -161.2 -179.2 -207.2 -203.5 -201.2 -245 -207.5 -121 -77.5 -74.2 -63.2 -62 -78.5 -99.8 -88.8 -83.8 -81 -77.8 -74.8 -72.8
39 38.5 38 37.5 36.5 35.2 34.8 33.8 32.2 32.2 33.8 35 35.2 36 36 35 33 31.5 32.2 32.8 33.5 34.5 36.2 38 41.5 53.2 64.8 56.8 51.5 53.5 54.8 45.2 37.5 37.8 35.8 30.5 29 36 39.8 40.8 42.8 45.2 44 42.8 43 43.5 42.5 42.5 43 44.5 47.5 52.2 57 56.2 58.2 61 62 63.2 68 66.5 67 70.5 72.5 72.2 73.2 74.2 75.8 76.8 80 80.2 81.8 81.5 81.2 81.5 85 89.8 92.2 92.2 90.2 89.5 90.5 93 94 94.2 96.2 95.5 94 93.8 94.2 95.8 97.2 93.5 97 100 99 95.8 93 91.8 95.2 95.5 101 103.2 100 94.5 90.8 88.8 83.5 80.5 78.2 77.2 76.8 74.8 69 60.5 60 59.5 59.2 58.5 57.8 57 56 55 54.5 52 49 49.5 49 49.5 50 49.5 48.2 47.5 43.2 43.5 41.2 39.2 33.8 30.8 29.8 28.2 28.5 30.8 27 24.8 22.8 7 2 2 -35.8 -94 -91.2 -105 -154 -164.8 -130.8 -84.2 -29 -46.5 -54.8 -35.5 -49.8 -88.2 -108 -82 -131.8 -112.5 -144.8 -126.8 -95.5 -156.5 -181 -178 -150.5 -179.8 -191 -162.8 -123.8 -193.5 -210.5 -183 -180 -195 -158.2 -107 -112 -122.8 -158.2 -171 -213.2 -285.5 -374.2 -348.5 -296.8 -292.5 -290.5 -216.5 -175.5 -169 -221.5 -200.2 -257 -333.5 -403 -378.8 -303.5 -324.8 -207.5 -149.5 -143 -240 -241 -211 -261 -250.2 -301.8 -325 -300.5 -262.5 -285.2 -368.2 -406.8 -421.2 -432.5 -393.5 -411.8 -380 -403 -340.5 -320.5 -376.2 -387.2 -350.5 -294.2 -304.5 -302.2 -224.5 -216.8 -154.2 -176.8 -229.5 -236.8 -225.8 -207 -165.8 -122.8 -89 -96 -123 -134.5 -207 -295 -314.5 -299.2 -275.5 -215.2 -158.5 -165.8 -217.5 -185 -87.2 -73.8 -70.2 -72.2 -69 -64.5 -66.2 -64.8 -72.8 -78.5 -72.8
42.2 43 43.2 43 42.8 42 43 40.2 37.5 36.2 36.2 36.8 39.2 42.2 42.8 43.5 41.5 39.8 39 38.5 40 42 43.5 44.5 45.8 58.2 72.5 57.5 47 52.5 63.2 57 50.2 50.2 47 41.5 41.2 46.2 50 48 48 49 47 44.2 45 45.8 45 44 49.2 50.2 54 56 59 61.5 63 62.5 61.5 62.8 66.2 66.8 67.8 71 72 74.5 77 77.5 78.5 82 84.2 83.5 81.2 79.8 80 80.5 83.8 87.8 89 89.8 90 90.2 92 93.5 92.5 92.5 93.8 93.5 93.8 93.8 95.8 98.5 99.5 97.8 99.5 100.5 100.8 98.5 96.5 97.2 99.5 101 102 103.5 98.8 90 89.2 87 84 83 77 75.2 73.8 66.2 61.8 60 59.5 58.2 56.5 57.2 56.8 55.2 54 52 51 49.8 48.2 48 48.2 49.2 50.5 51.5 45 44 33 32.8 31.8 37 31.2 29.2 27.8 26.5 20.5 21.2 18.5 17 4 -55.2 -115 -123.2 -153.5 -157.2 -148.2 -142.2 -129.2 -147.5 -115 -58.5 -52.8 -54.2 -49.5 -61.5 -87.8 -45.5 -53.8 -43.8 -55.8 -59.2 -59.8 -76.2 -92.5 -94 -109.2 -98.5 -99.5 -135.2 -169.8 -153 -133.8 -100.5 -139 -137.8 -162 -122.2 -111 -134 -140.2 -194 -231.5 -286.5 -279.8 -314.2 -334.2 -279.8 -260.2 -224.8 -226.5 -220.5 -192.5 -161.2 -177.8 -244 -272 -309.5 -332.2 -353.8 -276 -163.8 -127 -111.2 -181.8 -200 -157.2 -146.2 -216.5 -244 -286.2 -298.5 -284.8 -281.8 -327 -402.2 -396.8 -390.5 -419.2 -398.2 -361.8 -352.5 -367.2 -369 -298.8 -327.2 -392.2 -399.2 -376.5 -330.5 -278.8 -279.8 -300.5 -253.2 -129.2 -134.8 -193.2 -178 -126.2 -90.5 -101.5 -130 -150.2 -231.8 -305.5 -286 -357.2 -435.8 -404.2 -380.5 -304.8 -228.2 -174.5 -139 -196 -190.5 -123.5 -83.5 -79 -78.2 -79 -84.2 -90 -75.5 -80.2 -74.2
46.2 47 47.5 46.2 45.8 45.5 46.2 44.8 42.5 39.5 39.8 40.2 41.8 43 45 47.5 47.2 46.8 45.5 45.8 47.5 50.5 50.8 51.2 50.2 52.2 51.8 49.5 47.2 51.8 58.2 58.5 64.8 61.8 58 50.5 47.8 48.2 49.8 52 51.8 51.8 48.8 44.2 46 49.5 48.8 49.8 50.8 53.8 56 59 63 63.2 62.8 62.5 62 63.5 65 67 69.5 72.5 74.2 78.8 79.5 79 80.5 82.5 85.2 83.2 80.2 80 80 79.8 82 84 86.8 88.5 89.2 90 90.8 92.2 89.5 90.2 90 92.2 93.2 93.5 96.8 98.5 98.8 100.5 99.2 99.2 99.2 100.5 100.5 99 99.2 100.2 99.8 97 94.5 90.8 90 89.5 86.5 84 75 74.2 67 64.2 62 61.5 61 57.8 56.2 55.8 53.5 53 51.5 50 50.5 50 49 49.2 48.8 48.2 49.8 49.5 24.5 2.8 1.2 4.8 5.2 9.8 14.2 27.2 22.5 22.2 -13.8 -30.2 3.2 5.8 -4 -49.8 -65 -75.2 -91.5 -129.2 -149.2 -138.2 -147.5 -152 -140.8 -138.5 -142.5 -130.5 -107.2 -135.5 -140.5 -98.5 -50.5 -81.5 -118.5 -127.5 -99 -81.5 -85.2 -103.2 -57 -53.5 -68.2 -84.2 -102.5 -88 -104 -126.8 -137.2 -140.8 -128.2 -153.5 -177 -190.5 -238.2 -292.2 -347.5 -381.2 -362 -324.2 -238.8 -210 -223.5 -201.8 -247 -225 -167 -133.5 -162 -200.8 -256 -240.2 -300.5 -259.5 -194 -122 -100.8 -157.8 -235 -162.2 -130.2 -167 -203.2 -288.5 -287 -314.8 -328.5 -337.5 -332.5 -344.2 -385.2 -367.2 -347.5 -398.2 -337.8 -357.8 -330 -312.5 -332.8 -288 -334.5 -389.8 -374.2 -338.5 -332.8 -328.5 -295.5 -268.2 -256.5 -119.8 -105.5 -107 -94.5 -119.5 -150.5 -189.5 -280.2 -330.5 -388.8 -434.5 -401.8 -416.5 -389 -344.5 -336.2 -286.2 -196 -167.5 -129.2 -178.2 -196 -155 -96.2 -85 -80.2 -77.8 -83.5 -95.5 -101.2 -92.2
50.2 49.5 48.8 48 47.2 48 49.5 48.5 46.5 44.5 44 44.8 45.2 45.2 47 48.2 49.5 50.8 51 52 52.5 53.8 53.2 52.8 51.5 51 48.5 47.8 47.2 49.8 50 51.8 54.2 56.2 54.2 52.2 49.8 49.5 50.2 52 51.5 50.8 48.8 49.5 52 51.8 50.2 49.8 53 58.8 60.2 61.8 62.5 62.2 62 62.2 63.8 65 69.8 73.5 73.2 72 74.5 77.5 77.2 77.5 79 79.2 78.5 77.2 79.5 80.2 81.5 81.5 82.8 83.5 86.5 87.8 88.2 88 89 90.2 89 88.5 89.5 90.2 90.2 92.8 95.2 97.2 98.8 99.5 99.5 100.2 101 102 101.5 99.8 101.2 101.5 99 94.8 91.2 89.2 89.5 88.5 85.2 76.2 73.2 68.8 65 63.5 61.8 60.8 59 56 54.5 52.2 52.2 52 49.8 49 49.8 50.5 50.2 50 50.5 46.5 44.2 34.5 -30.5 -83.8 -103 -89.5 -82 -95 -16.5 11.8 4.8 0.2 -26.5 -69.2 -50 -45.8 -54.2 -46.2 -42.2 -47.8 -69.2 -84.5 -96.2 -102.2 -132.5 -163.8 -190.5 -202 -193 -196.2 -142.8 -131.8 -112 -104.5 -77.2 -94.5 -137 -166.8 -194.8 -211 -168.2 -167.5 -116.8 -97.2 -118.5 -135 -95.8 -132 -202.8 -155.5 -151.5 -138 -175.5 -177.8 -204.8 -264.8 -344.8 -339 -315.2 -328.5 -309 -266.5 -261.5 -257.2 -222 -207.5 -173 -160.8 -115.5 -125.2 -143.8 -249.8 -246.2 -216 -249.5 -196.5 -179 -170.2 -110.2 -147 -130.8 -111 -160 -203.2 -211 -320.2 -257 -291.5 -366.2 -400 -383 -337 -325.2 -345 -337.8 -396.8 -387.8 -319.8 -295.5 -302.2 -324.8 -326.2 -266.5 -310.2 -340.8 -329 -323.2 -318.2 -284 -212.5 -182.8 -177.2 -159 -122.8 -125.8 -193.5 -244.5 -287 -345.8 -428.8 -490 -613.2 -583.5 -451 -344.5 -323.5 -293 -265.8 -246.8 -194.2 -159 -119.8 -115 -136.5 -135.8 -126.5 -96.5 -92.2 -94.5 -98.8 -94 -93.2
52.5 51.5 51.2 50.2 49.5 50.5 50.8 50.5 49.2 49 49.2 49.8 50.5 50.5 50.8 51.5 52.2 53 53 53.8 54.2 55.2 55.2 55 55 53.8 52.5 52 52 51.8 50.5 49.5 48.5 51 52.2 52.8 52 50.2 49.5 49.5 50.8 51.2 53 52.8 51.2 51.8 52 52.8 58.2 61.2 62.8 63.5 63.2 63 63.2 62.8 62.8 67 73.2 76 73.8 73.2 76 75.8 75.5 76.5 77.5 79 79.2 80.8 83 85 85.5 85.8 86 86.5 87.5 88.2 88.5 87.5 89 90.2 89 87.8 88.5 91 89.5 91.5 94 96 97.5 97.5 98.8 100.5 102.2 102 100.8 100 102.2 98 94 87.8 87 89 91.5 81.2 76 74.2 71 67.8 64.8 63.5 62 60.5 56.8 50.2 45.5 46 50 52 51.5 50.5 50.8 50.8 50.5 47.2 43.8 38.2 31.8 13 -37.2 -102.2 -114.5 -138.8 -117.5 -49.2 -27 -20 -53.5 -94.8 -109.2 -220 -190.5 -200.5 -230.5 -262.5 -174.2 -86 -131 -134.5 -103.8 -110 -113 -126.8 -134 -142.8 -176 -191.8 -170.5 -132.5 -149.2 -160.2 -163.8 -125.8 -95 -139 -175.5 -204 -240 -248 -189 -170.2 -155 -188.2 -173 -181 -219.2 -211.2 -228.5 -144.2 -166.5 -180.8 -234.2 -303 -331.2 -284.2 -241 -256 -285 -262.5 -250.5 -236.8 -223.2 -168 -174 -141.5 -109.2 -139 -222.2 -273.5 -283.5 -201 -228.8 -186.5 -147 -151.2 -107.8 -73.2 -77 -124.8 -150.2 -151 -184 -199.8 -235.8 -334 -405 -390.5 -348 -309 -301 -369.2 -306.2 -297.8 -358.8 -363.5 -317.5 -265.2 -292.8 -357 -255.5 -272.5 -313.8 -319.5 -276.2 -230.2 -224.8 -188.8 -160 -149.2 -127.2 -124 -201.8 -281.2 -332.5 -376.8 -498.8 -614.2 -600.8 -493 -638.2 -528.2 -447.2 -292 -272.2 -239.5 -238.2 -233.5 -211 -180 -119 -134.8 -129 -120.5 -132.8 -128.5 -112 -96 -90 -93.2
54.5 54.5 54.5 53.2 52.5 53 52.5 53 53 53.5 55 56 56.5 56 54.2 53.8 53.8 53.8 53 53.2 54 55.2 56.5 58 59 57.5 55.8 56 56.5 55.5 54 52.2 51 51 52 53 53.8 52 51 51 53.5 52 49.8 49 47.5 47.8 53 57.2 61.8 63.2 63.5 63.2 63.8 63 61.5 60 59.2 63.5 71 75.2 74.2 73.5 75.2 74.2 74 77 78.8 81.2 83.2 87.8 88.2 89.5 90.2 90.2 90 90 90.2 90.5 89.8 90 92.5 91.8 90 88.8 89 90.8 89.5 92 93.8 96 96.5 96.8 98 98.8 99.5 98 99 99 99.5 94.5 89.2 82.2 90.5 87.8 83.5 76.5 74.2 72.2 69.5 68 66.5 64.2 61.5 59 52.2 41 36 41.5 45.8 49.8 51.5 49.2 49.8 47.5 45.8 39 33 24.5 20.5 7.5 -35.2 -68.5 -105.2 -105.8 -79 -71.8 -111.5 -103.2 -86.2 -102.5 -151.2 -187.8 -235.2 -244.5 -217 -183.5 -201.5 -217.2 -227.8 -152.2 -125 -130.8 -129.8 -132.2 -150.2 -166.2 -187.8 -241 -294.5 -235.8 -239.5 -164.2 -146.8 -158.2 -134 -169.5 -147 -186.5 -257 -306.5 -274.5 -261.2 -253 -245.8 -267.8 -284.2 -269 -229.5 -190.5 -185.5 -219.2 -262.2 -312.2 -326 -273.2 -243 -196 -168.5 -221.8 -207 -189.2 -129.2 -133.5 -153.2 -174.5 -156 -153.8 -218.8 -236.5 -248 -206.2 -192.5 -130.8 -163.2 -105 -117.8 -70.8 -106 -148.2 -189.2 -210.5 -208.5 -189.8 -223.2 -279.5 -376.5 -367.5 -353.2 -358.5 -313.2 -266.5 -334.8 -346.2 -321.2 -257.8 -270 -319 -267.2 -285.5 -317 -249.8 -221 -232 -250 -246.2 -202.5 -198.8 -237 -215.2 -178.8 -154.8 -192.2 -226.2 -287 -352 -586 -683.5 -648.8 -555.5 -459.2 -420.8 -566 -373.8 -309.2 -230.8 -225 -219.2 -210.5 -183.2 -181.8 -133.2 -95.2 -131.5 -97.2 -117.8 -115.8 -110.8 -96.5 -89.8 -100.2
55.5 56.2 56.8 57 56.5 57 57 57.5 58 60 60 61.8 60.8 59.5 57 54.2 53.2 52.5 53 53 53.2 54 57.2 59.5 61 60.2 59 58.8 58.5 57.8 56.2 55.2 53.8 51.5 50 54.8 55.5 54.5 53.2 52.2 50 45.2 47.8 49.5 53.2 56 59.5 61.2 64.5 63.8 62.8 64 62.8 61 59 59.8 61.5 67.5 68.2 71 73.2 73.8 72.2 74.5 77.5 81.5 83.5 86.8 89.8 91.5 92 92.5 93.2 94.2 93.8 93.2 93.8 93.2 92.8 93.5 95.8 95.5 96.5 95.2 92.8 92.2 93 94.5 96 95.8 94.2 96.5 97.5 96.8 94 90.8 93 95.2 94.2 91.5 87.5 84.8 84.8 82.2 77 74.2 71.5 73.5 73.2 72 68.8 65.8 55.2 44.5 33.2 35.5 39.5 44.2 48.5 46 43.8 41.5 40.5 34 32 21.8 11.2 -4.5 -5 -26.8 -35.8 -70.2 -98.5 -107.8 -94 -98.8 -90 -102.2 -144.2 -162.8 -185.8 -192.8 -165 -175 -194 -218.2 -283.2 -311.8 -263.8 -238 -236.2 -238.2 -268.2 -271.5 -286.8 -260 -241 -222.5 -202.2 -185 -206.8 -218 -216 -203.2 -187.2 -214 -191 -195.5 -257.5 -286.8 -287.8 -261.5 -248.5 -233.2 -252.2 -250.8 -235 -192 -219.8 -205.8 -222 -276.2 -316.2 -279.2 -266.8 -202 -179.5 -136.2 -136 -149.8 -218.5 -197.8 -213 -224.8 -247 -237.8 -126.2 -117.2 -148.5 -177.5 -117 -113 -77.5 -69.2 -72.5 -80 -122.8 -147.8 -154.8 -180 -224 -292 -332.2 -364 -306 -289.8 -300.5 -326.5 -313 -333.5 -248 -249 -276.2 -295.5 -311.2 -290.2 -244.5 -236.8 -196.2 -228.8 -237.5 -203 -193.5 -229.5 -220.2 -261.5 -233 -185.5 -173.2 -167.2 -210.2 -285.2 -316.5 -338 -381.5 -529.5 -711.5 -689.2 -579.2 -547.2 -487.2 -361.8 -466.5 -450.5 -268.2 -207.2 -184 -194.2 -193.2 -159.2 -150.8 -117 -106.2 -87 -80 -93.5 -101.5 -120.2 -126.8 -131.5
56.8 58.2 59 60.5 61.8 62.5 64.2 64.2 64.2 64.8 62.8 60.8 61 60.5 59.2 57.2 55 54.8 54.8 54 54.8 56.2 59 61 61.8 62.5 63 61.8 60 59.2 57.8 56.8 54.2 57 57.8 57 56.2 55 53.8 54.2 53 49.2 49.2 50.8 53.5 60 62.8 62.8 60.8 61.5 62 62.8 61 60 59.8 62.5 60.8 60.8 65.5 73 77 75.2 72.2 77 85 88.5 91.2 92.2 94 95 94.5 96 96.5 97 96.5 96 96.8 96.5 96.5 97.8 98.5 99 99.2 97.8 96.2 95.8 97.5 98.8 99 97.2 94.8 98.5 99.8 97 91 86.2 88.2 94 94.2 91.2 87.5 81.5 81.5 79.8 76.2 74 72.5 79 82.5 73.2 67 61.8 44.8 31 36 43 46.8 41 39.2 36 35.2 26 22.2 1.2 -13.5 -18.2 -34.8 -61.8 -61 -88 -79.5 -80.8 -87.8 -74.8 -86 -77.5 -96.8 -127 -141 -177.2 -205.5 -264.5 -258 -238.2 -269.8 -307.5 -368.8 -355.8 -423.8 -403.5 -299.5 -296.2 -267.5 -238.8 -232.5 -295 -263.5 -214 -216.2 -155.8 -149.8 -219.8 -205.8 -220.5 -209.8 -203.8 -229.2 -239.2 -258 -241 -223.8 -214.2 -225.8 -173 -207.8 -205.8 -142.2 -118 -148 -146 -191.8 -223.5 -247.2 -241.5 -167.5 -140 -122.2 -112.8 -233.2 -302.2 -257.5 -267.8 -257 -255.5 -200.8 -125 -129.5 -108.2 -89.8 -111.8 -97.5 -55.5 -59 -78.5 -83 -108 -161 -129.2 -158.8 -229.5 -342 -386.2 -343.8 -321 -326.8 -328.2 -295.5 -241.2 -252 -238.2 -252.8 -209.5 -238 -222.2 -205 -200.5 -183.5 -214.8 -186.8 -191.2 -157.2 -155 -167 -176.2 -179.5 -249.2 -239.8 -206.5 -183.5 -177.2 -221.8 -280 -417 -390 -300.2 -524 -581.8 -608.5 -692 -546.2 -520 -491.5 -315.8 -387.8 -436.5 -223.8 -150.2 -238.5 -250.5 -187.8 -175 -121 -87.5 -98.5 -134.2 -151.5 -156.2 -176.8 -198.8 -205.8
61.2 62.2 63 64.5 66.5 66.5 67 66.8 66 65.8 64 62.5 62.5 62 61 59 57.2 56.5 57 57 57.8 59 61 62 62.5 63.2 64 63.5 62.8 61.5 60.2 60.5 60.5 59.5 57.5 58.5 58 57 56.2 55.5 54.8 53.5 54.5 59.8 63 62.5 59.2 58.8 58.5 58.2 58.8 59 60.5 62 57.8 55.5 56.5 61.2 67.5 74.2 79.2 77.5 74.8 79.5 86 90.5 93.2 95 95.8 96.2 96.5 97.2 97.8 98.2 98 97.5 97.5 98.5 100 101.2 101.5 101.5 100.8 100.5 100.2 100.8 103.5 103 101.2 99.8 99 102 101.5 99.2 95 90.2 90.5 93.8 95.8 90.8 86.8 81.2 79.2 76.5 75.8 79.2 78.8 79 80 67.2 56.2 41 37.2 37.2 40.8 40.5 39 32 28.8 17.5 8.8 -10 -23.2 -48.8 -69.8 -87.5 -106.8 -114 -107 -115 -112 -113.2 -102 -81 -70.5 -98.5 -126.5 -164 -182.2 -176 -171.8 -169 -197.5 -253 -251.8 -245.5 -257 -286 -323 -309.2 -263 -202 -197.5 -194 -260.2 -263 -221.2 -154.2 -139.2 -162 -193 -221.5 -206 -171.2 -181.2 -195.8 -198.8 -214.2 -227.2 -201.5 -217.2 -218.2 -153.8 -128.5 -156.2 -129.5 -133 -116.2 -129 -122.8 -152.8 -184.8 -205.8 -221.5 -284.5 -246 -252.2 -123.8 -279.2 -237.8 -200 -170.8 -194 -180.2 -171.5 -205.8 -186.8 -100 -82.2 -86.2 -64 -43.8 -49.8 -65.2 -96 -123 -161.5 -197.8 -239.8 -259.5 -319.8 -338.8 -330.8 -338.5 -332.2 -282.2 -280.2 -285.8 -268.8 -306.2 -302.5 -228.8 -288 -325 -280.2 -313.8 -328.2 -291.2 -215.8 -194.5 -184.5 -229.8 -229.2 -182.8 -139.2 -145 -179.5 -207.5 -164.5 -156.2 -182.5 -343.5 -399.2 -308 -230.5 -382.5 -552.8 -426 -485.2 -579.8 -401.2 -485.5 -455.2 -295.5 -351.8 -309 -143.8 -219.8 -221.2 -187 -140.8 -113 -86.5 -98.5 -122 -138.2 -214 -171.8 -142.8 -140.8
67 67.2 67.2 68 69 68.5 68 67.5 67.2 66.5 65.2 64.5 63.8 63.5 62 60.5 59.5 59 60.2 61 61 61.8 62.5 63 62.8 63.8 63.5 63 62.5 62.5 62.5 62.5 62.5 61.5 61 59.5 60 59.2 58 57.2 59.2 60.8 61 62.5 63.5 62 57.8 55.8 54.8 54.2 58 58.8 61 59.2 53.2 54.5 57 61.5 67.5 74 80.2 80.2 79.2 82.8 87.2 92 96 97.5 97.2 97.2 97.2 97.5 98.5 99.2 98.2 97.8 99.5 101 103 104 103.2 102.8 102.5 102.2 101.5 104.8 108.2 107 104.5 104 104 104.8 103.8 101.2 99.5 95 94.5 95.8 95.5 86 84.5 81 78 76.5 77 83.2 79.5 70.5 69 64 49 34.2 35.8 39.5 35.2 31.8 30 5.2 -13.5 -24.2 -55.2 -75 -80.8 -91.2 -94.5 -99.2 -94.5 -103.8 -116 -113.8 -119 -134.2 -123.8 -107.2 -76.5 -84 -108 -97.5 -97.5 -110 -126.8 -148.5 -183 -190.8 -184 -188.8 -196 -222.2 -208 -198.2 -204.5 -188.5 -161.5 -184.2 -200.8 -178.2 -121.8 -117 -170.2 -188.5 -201.5 -214 -187.8 -156 -134.5 -174 -192.8 -178.5 -185.5 -186 -157 -186.8 -141.2 -129.5 -118.5 -149.2 -161.5 -151.5 -138.8 -162.2 -201.8 -254.8 -260 -231.2 -247.2 -178.2 -176.8 -91.5 -159.2 -128.8 -117.2 -118.8 -148 -129.5 -150.8 -148.5 -93 -77.8 -73.8 -41.2 -48 -75.5 -91.2 -96.5 -170.8 -237.2 -272.5 -257.2 -249.8 -320.2 -371 -382.2 -382 -383.8 -344 -337 -353.8 -346.5 -271.8 -310.8 -270.2 -271.8 -267.2 -312.2 -323.2 -326.5 -286.2 -230.8 -244.5 -288.8 -293.2 -269 -239 -205.5 -191 -165 -143.8 -140.5 -193.8 -216.8 -176.8 -340 -350.2 -294.5 -223.8 -412.8 -591.5 -443.5 -345.2 -458.5 -476.8 -359 -365.8 -227.8 -377.8 -394.2 -177 -134 -163.5 -127.8 -110.2 -123.8 -135.2 -96.2 -73 -122 -242.5 -226.8 -190.2 -132.8
72 71 70.2 69.5 69.5 69.5 69.2 68.2 68 67.5 65.5 65.2 65.2 65 64 62.5 61.8 61.5 63 64.2 63.5 63.5 63.8 64 64.2 64.5 64 63.5 64.5 65.5 65 63.8 63.2 63.2 63.2 63.8 64.8 63.5 62 61.2 63 64.2 64 64.5 64.2 63.5 61 57.5 57 57 57.5 58.5 57.2 56.8 55.2 55 57.5 62.5 67 72.2 77.5 82.2 84.5 87 90.5 94.5 98.2 98.8 98 98 97.5 97.2 98.5 99.2 98.2 98.5 101.5 102.8 104.2 105 103.8 103.8 104.8 104.5 106 107.2 108.8 110.2 112 106 106 106.8 104.5 100 99 98.2 97 96.5 93.5 83.5 81.8 79.2 77.8 77.8 79.5 84 75.8 66 65 55.8 42.2 33 30.8 27.5 20 19.5 9.5 -27.8 -66 -58.8 -51.5 -57 -70.8 -73.8 -70.8 -71.2 -81 -90.8 -96.8 -109 -111 -104.8 -108.8 -94 -90.8 -83 -72.8 -64.5 -97.5 -125 -132.5 -146 -156 -169 -133.2 -172.2 -201.5 -184 -179 -159.5 -142.2 -131 -185 -197.8 -180 -118.8 -131 -142.2 -139.5 -166 -151.2 -166.2 -184 -150.2 -153.5 -139.8 -190.5 -176 -146.2 -125.2 -167.8 -193.8 -198 -192.2 -190.8 -173 -119.2 -74.5 -123.5 -117.8 -141.5 -149.8 -192.2 -139.5 -159.2 -100.2 -125.8 -57.2 -103.5 -80.2 -71 -107.8 -89.2 -81.8 -94.8 -81.5 -50.5 -31.5 -49 -102.5 -150.2 -189 -234 -223.2 -152.2 -155.2 -174 -203.5 -242.5 -299.2 -356.5 -430.8 -514.8 -473.5 -488.2 -471.5 -361 -284 -296.2 -329.8 -343.5 -284 -288.2 -341 -444 -415 -288.5 -434.2 -396.2 -539.8 -464.8 -357 -397.8 -327.8 -438.5 -387.5 -319.2 -160.5 -123 -206 -193 -294.8 -235 -130.2 -260 -482.8 -580.8 -492.2 -324.8 -293.8 -449.5 -441.2 -309.8 -278.2 -219.5 -246.5 -200.8 -120.5 -165.2 -213.2 -205.5 -179 -134 -212.2 -251 -160.2 -78.5 -121.2 -151.8 -148.8
72.2 71.8 70.8 70.8 71.2 71.2 70 69.2 68 66.5 66 65.8 66 66.2 65.8 65 64.5 64 64.5 64.5 65.2 64.8 65.5 66.2 65.5 65 65 65 66 66.8 66.2 66 67 66.5 67.2 69 70.2 69.5 67.8 66.8 65 64.2 65.5 65.2 64 65 64 63.2 60.2 54.5 53.8 54.8 56.8 57.5 60.2 59.8 62 65.2 68.8 72 76.2 83.8 89.8 91.5 94 97.5 99.5 99.5 100.2 101.8 102.2 100.8 99.5 99.5 100 101 101.2 102.2 104.5 105 103.8 105 106.5 107 108.8 109.2 110.5 110.5 109.5 108.8 108.2 106.2 104.5 102.2 101.2 101.5 98.8 96.2 89 82.5 80 77.5 77.5 79.8 79.5 80.5 64.5 50.8 52 44.5 33.5 23.8 23 17.5 6.5 1 -1.2 -31.5 -40.2 -52.2 -58.2 -61.8 -66.5 -75 -53.2 -74.8 -81.2 -100.2 -103.2 -99.2 -83.5 -100 -113 -112 -106.2 -102.2 -106.8 -73.8 -88.5 -80.5 -104.5 -115 -127 -131.8 -102.8 -121.2 -134.8 -143 -124.5 -116.5 -89.2 -131.8 -174.5 -160.5 -150.2 -103.8 -125.8 -145.2 -162.8 -139.5 -111.5 -117 -131.5 -161.5 -106.5 -152.2 -157 -125.8 -175 -113.8 -134.8 -130 -135 -139 -134.5 -140.5 -107 -73.5 -69.5 -68.8 -93.8 -88.5 -88.5 -92.2 -89.2 -53 -59 -41.5 -59.5 -41.5 -70.2 -70.2 -68.8 -38 -60 -48.5 -33.2 -79.5 -138.5 -208.8 -260.8 -302 -260.5 -190 -182.8 -169.2 -221.2 -275.8 -413 -488 -552.8 -569.8 -676.2 -621.2 -522.2 -460.5 -419.5 -338.8 -345.8 -463.2 -534 -370.5 -316.8 -487 -571.5 -454.2 -418 -584.5 -666.2 -670.8 -590.5 -501.5 -468.2 -578 -479 -387.5 -311.5 -203.8 -235.2 -149.5 -224.5 -155.5 -157.2 -163.8 -127 -226.2 -394.8 -454.2 -289 -262.2 -312 -305 -252 -251.5 -274.8 -165.2 -153 -158.8 -202.8 -177 -155.8 -154.5 -203 -310 -228.5 -144.8 -106.8 -73.8 -86.5 -120.8
73.5 73.2 72.5 72.5 72.8 72.2 71.5 69.8 68.2 66.5 66.2 66.2 67 67 67.5 67 66.2 66 65.8 65.8 67 67 66.5 66.2 65.8 66 65.2 65 64.8 65.5 66 66 67 67.8 69 70.8 71 69.8 68.5 66.2 66 63.5 64.2 62.2 62 63.5 63 63.5 65.2 63.2 58.2 57.2 57.2 61.8 65.8 68 70 73 74 76 79 83.5 86.5 88.8 93.8 98.2 100.2 100.5 102 104.2 102.5 100.8 100.5 101 98.8 99.2 100.8 102.2 104.8 105.5 105.8 108.5 108.2 108.2 110.2 110.8 111.5 111.8 111.5 109 108.5 104.5 104 105.8 105.5 103.8 98 92 84.2 81 78.2 76.2 75 74.5 71.2 65.5 55.5 45.8 44.2 39 30.2 24.5 23.2 17 -22 -22.2 -7.2 -22.8 -14 -10 -6.2 -6.2 -7.2 -16 -23 -46.8 -53.8 -68.5 -73.2 -48 -59.5 -96.2 -130.5 -130.8 -110.2 -86.5 -67.5 -47.8 -65 -83.5 -94.8 -87.2 -111 -105.5 -82 -80.8 -80.5 -89.2 -82 -68.2 -60.8 -110.2 -119.2 -93.5 -87.5 -76.8 -129.8 -154.2 -159.2 -149.2 -111.8 -110 -100.5 -110.8 -83 -110.8 -84.5 -78 -103.2 -95.5 -67 -101.5 -127.2 -122.5 -84 -70.8 -64.2 -75.5 -19.5 -19.8 -39.5 -20.8 -21.8 -23.2 -19.8 -25.8 -29 -20.5 -20.5 -24.5 -36.5 -29.2 -29 -41.8 -47.8 -56.2 -107 -170.2 -216 -224 -224 -258.8 -243.8 -253.8 -257.5 -304.8 -404 -390.2 -526.5 -525.8 -527 -530.5 -589.8 -628.5 -501 -414.2 -461.8 -449.2 -490.2 -519.5 -457.5 -389.8 -471.2 -519.2 -507.2 -608.8 -500.2 -519 -682 -657.5 -523.5 -595.5 -670 -610.5 -600 -488.2 -311.8 -282.2 -387.5 -219.2 -161.5 -152 -155 -178.5 -145.2 -113.8 -114.2 -168.5 -192.8 -180.2 -297 -381 -412.2 -316.5 -245.2 -152.5 -193 -266.2 -200 -135.2 -114.5 -131.5 -157.8 -171.2 -166 -144.5 -129.2 -109.8 -78.8 -82
75 74.8 74.2 74 73.5 72.5 71.5 70.2 69 67 67 67 67.8 68 67 67 66.8 67 67.5 67.2 67.2 66.8 66.2 66.2 65.8 65.2 65.5 65.5 65 65 65.5 67.8 69.8 70 68.8 68.2 70 69.5 65.8 62 62 63.2 62 60 61 62.5 63.5 64 63.8 63.5 64 62.2 63 66 63.5 62.2 65.8 67.2 68 71 75.8 84 91.5 95 96.8 99.5 100.8 101.5 103.5 106.8 105.5 103.2 102 101.5 99.8 101 103 105.8 106.2 106 107.5 109.5 109.5 110.2 111.8 113.2 113.2 113 112.2 108.5 108 106 105.5 108 108.5 104.8 91 87 82.5 78.5 74.5 72.8 69.8 67.5 63.2 59.8 51.5 43.5 43.2 39.5 30.2 27.5 31 28.5 13 2.5 14 15 18.5 14.2 18 14.2 17.5 12 12.8 5.2 5.2 2 -21.8 -55.2 -79 -77.8 -82.8 -74.2 -63 -56 -33 -41.5 -56.8 -68.8 -65 -62.2 -77.8 -73.2 -63 -57.5 -48 -44.5 -42.2 -38.8 -58.8 -77 -78.2 -63 -43 -74.2 -93 -85.8 -112.8 -94 -91 -68.8 -99.5 -91.2 -48.8 -88.2 -63 -93.8 -74.5 -57 -46.2 -58 -58 -45.2 -39 -32.2 -11.5 -29.2 -54.2 -59 -50.2 -79.5 -84.5 -94.2 -100.5 -100.2 -84.8 -71.2 -111 -106.2 -130.5 -153.5 -140.2 -141.8 -94.5 -108 -134.8 -149.8 -170 -210.8 -281 -338.5 -411 -467.8 -472 -524.5 -515 -525.5 -497.5 -425 -423 -460 -491.8 -499.5 -398.2 -310.5 -391.5 -562 -597.8 -517.8 -530.2 -461 -517 -436 -537.2 -581.2 -514.2 -455.5 -518.2 -611.2 -526 -483.2 -548.5 -426.2 -373.8 -318.2 -287.5 -316.2 -291 -373 -350.5 -344.8 -385.2 -334.2 -272 -198 -115.2 -90.8 -107.2 -132.8 -278.2 -351.5 -335.5 -303.5 -226 -130.2 -237 -251.5 -183.8 -130.5 -95.2 -125.8 -131.8 -130 -125 -118.5 -124.8 -132.5 -85.8 -61
76.5 76.5 75.2 74 72.8 70.2 68.5 67 67.5 68 67.5 67.5 68 68 67.5 67.5 68.5 68.5 68.5 68.5 69.5 68.8 68.5 68 67 66.5 66 66 67 67.8 69 68 66.8 66 66.5 67.2 67.5 68.5 68.5 68.5 67.8 65.2 62 60 59.2 58.5 60.8 61.2 61.2 62 60.8 60 59.5 59.2 60.5 62.5 64.8 65.8 67 71 75.2 82 88.2 94.8 99.2 100 100.2 101.2 103 105.2 105.2 103.2 102.2 101.5 101.5 101.8 103.2 104.5 105.8 106.5 108.5 109.2 109.8 110.5 112.8 113.2 113 111.5 109.8 108.8 109 107.5 107 106 103.2 97.5 87.5 83.5 79.2 70.5 64.2 59.2 61.5 64.2 59.8 58.2 55.5 50 44.5 40.5 31.2 28 34 37.5 34.2 32.2 36.5 31.8 26.2 22.2 21.5 21 21.5 21 20.8 16.8 14.2 3.8 -19.5 -63 -81 -99 -73.5 -47.5 -37.8 -34.8 -25.8 -43.2 -46.2 -50.8 -57 -77.5 -90.2 -92 -83.5 -60.8 -80.5 -80.5 -51.8 -80.8 -68 -55.5 -61.2 -59 -51.2 -43.5 -44.2 -50.8 -73.2 -61.8 -106.2 -48.8 -42.8 -56.2 -46.5 -28.8 -25.2 -37.2 -42.2 -22.2 -53.2 -100.8 -108.2 -83 -69.8 -33.8 -15.5 -36.5 -47.5 -85.5 -121 -134.2 -127.5 -119.5 -109 -93.5 -73 -116.8 -144.8 -154.5 -193.5 -215 -190 -165.8 -111.5 -85 -149 -171 -211.5 -268.2 -357.8 -389 -369.8 -370.8 -344.8 -426 -421.2 -440.2 -373.8 -388 -381.8 -387.2 -483 -431.2 -268.8 -296.8 -434 -493.2 -465.5 -432.5 -399.2 -413.2 -383 -360.2 -443.8 -446.5 -437.5 -388.5 -432.8 -466.5 -506.2 -470.2 -380.8 -468 -428.2 -481.8 -407.5 -387.8 -496.8 -510 -481.2 -513 -493 -498.5 -451.2 -390 -331 -278.5 -154.5 -77.8 -82.2 -99 -115.8 -118.2 -120.8 -106.5 -155.2 -168.2 -142.2 -116.5 -89.2 -87.5 -69.2 -65.5 -74 -74.8 -73 -98 -108 -81.2
70.5 70.5 70 69.5 69.5 69.8 70.8 70.8 70.2 69.8 69.8 69.5 69.8 70 70 70.5 70 70 70 70.2 70 70 70 69.8 69.2 68.8 70.5 69 67.8 66.2 66 66.5 66.5 66.5 66 67 67 67.5 68 67.5 67.2 66 64.2 64.5 62.2 61.8 59.8 56.2 58.8 60.5 61.2 61.8 61.2 60.5 60.8 62.2 63.5 65.5 67.8 71 74.5 80.2 85 93.5 99.8 99.5 99.5 100.5 102 103.5 105 106 104.8 103.8 103.5 103 103.8 104 107 108 109.5 108 109 110 112.2 113 111.5 110.5 108.5 107.5 108 107 106 103 98.5 90.5 82.5 77.8 72.8 64.8 55.5 50.5 57 60.5 59.5 58 54.5 53 48.2 40.8 32.2 26.5 35.5 43 44.8 42.8 43.2 38.8 33.5 28.5 25.8 24.5 24 24 23.8 20.5 17.8 7.2 0.5 -47.2 -88 -77.5 -57.5 -51.2 -43.8 -39.8 -28 -26 -30.2 -32.5 -43.5 -47.5 -55 -72 -78 -57.2 -66.5 -47 -42.5 -47.5 -69.8 -78.5 -83 -95.2 -101.2 -71.2 -40.2 -32.5 -26.8 -31.8 -49.8 -41.5 -33.2 -31 -32.8 -18.5 -22 -32.2 -15 -50.5 -97.2 -118.2 -112 -67.5 -80.8 -68 -32.8 -90.8 -111.2 -112.8 -123.8 -116.8 -96.8 -76.8 -69.8 -71 -75.5 -119.2 -147.2 -167.8 -215 -225 -193.5 -147.5 -88.2 -65.8 -111.2 -159.2 -226 -199 -203.8 -224.2 -233 -220.2 -214.8 -240.5 -260 -273.5 -271.5 -297.2 -281 -303.2 -342 -356 -243.2 -274.8 -400 -393.5 -408 -395.2 -349.5 -360.2 -293.2 -383.2 -419 -378.8 -376.5 -372.8 -329.8 -378.2 -445.2 -450 -400 -380 -469 -552 -548.2 -519 -464.2 -503.8 -489.8 -459 -442.5 -439.8 -448.8 -462.5 -442.2 -358.2 -209 -250.8 -177.8 -154.2 -156 -69 -55.5 -136.8 -178.5 -142.5 -115 -98.2 -71 -67.8 -68.5 -75.8 -85 -69.8 -63.5 -50 -72.5 -115
72 73.8 74.2 72.2 71.2 70.8 70.5 70.2 70 70 70 70.2 71.8 72.8 72.5 71.2 70 69.5 69.5 69.5 69.5 69.5 70 70 71 70.2 70 67.5 67.2 67.5 67.5 67.8 67.8 67.5 67.2 67 67 67 67 66.8 66.2 65 62.8 60.8 62.2 63.5 62.8 60.2 60.2 60.8 62 63.2 63.5 63 61 62.2 63.5 65.5 68 72 76 80.8 86 92.8 97.8 99.5 100.5 102 103.8 104.8 106.2 106.5 105.8 105.5 105.5 105.8 106.5 106.5 107.8 108.5 109 108.8 109 109.5 111.5 112 112 111 109 108 107.5 105.5 105 99.8 95.2 87.5 77.2 74.2 67.8 59.8 51.5 49.2 55.8 58.5 58.5 57.5 54.8 54.2 52.8 47 39.8 36 40.5 45.8 47.5 46 44.8 43 40.5 35 29.8 27.5 28 27 25.2 20.2 17 6.2 2 -62.5 -94.8 -94 -72.8 -72 -68 -56.5 -46 -22.8 -31.5 -35 -29.5 -29 -58.2 -56.8 -62.8 -45 -27.8 -25.5 -46.5 -43.5 -77.8 -86.5 -82.5 -66 -69.2 -65.2 -80.2 -101.8 -117.5 -127 -132.8 -106.8 -66.5 -31.8 -53 -39.8 -19 -26.5 -11.8 -60.5 -71 -87 -85.2 -41 -33.2 -40 -75 -119.5 -99.2 -77.8 -77 -69.8 -116.5 -184 -172.8 -150.2 -108 -111.2 -122.2 -150.8 -159.8 -170.8 -167.5 -117 -75.5 -48 -62.8 -89 -110.2 -132.2 -154 -145.2 -155.8 -195.8 -219.2 -188.2 -171.8 -179.2 -208.5 -199.2 -178.8 -183.2 -194.2 -192.2 -196.2 -268.5 -302.2 -318.8 -347.5 -345 -296.8 -296.8 -298 -358 -341.2 -370 -423.5 -382 -310.2 -316.2 -403.2 -398.2 -394.2 -352.8 -482.8 -546 -499.2 -489.8 -436.2 -401.2 -412.8 -391.8 -360.2 -384 -382 -364.8 -377.2 -355.5 -395.8 -429.5 -348.2 -471.8 -428.5 -211 -59 -71.8 -125.5 -97 -82 -80 -78 -66.2 -63 -80 -80.5 -84.5 -69.8 -52.5 -60.2 -79.8
